99999.0,99999.0,99999.0,99999.0,99999.0,99999.0,99999.0,99999.0,99999.0,99999.0,99999.0,99999.0,99999.0,99999.0,99999.0,99999.0,99999.0,99999.0,99999.0,14.28,12.0,25.4,16.76,22.32,25.4,4.86,12.0,14.28,0.0,0.89,9.92,99999.0,99999.0,99999.0,99999.0,99999.0,99999.0,99999.0,99999.0,99999.0,99999.0,99999.0,99999.0,99999.0,99999.0,99999.0,99999.0,99999.0,99999.0,99999.0,99999.0,99999.0,2.48,99999.0,99999.0,99999.0,99999.0,99999.0,99999.0,99999.0,99999.0,99999.0,99999.0,99999.0,99999.0,99999.0,99999.0,99999.0,32.14,150.88,121.52,166.76,135.81,158.72,121.52,83.43,32.14,4.86,99999.0,99999.0,99999.0,99999.0,99999.0,99999.0,143.25,345.32,432.12,200.88,99999.0,99999.0,99999.0,4.86,83.43,67.06,333.71,219.13,101.58,192.05,101.58,121.52,0.0,32.14,278.65,333.71,500.07,733.68,588.16,619.11,1135.74,857.98,500.07,89.28,99999.0,99999.0,99999.0,99999.0,99999.0,99999.0,99999.0,99999.0,99999.0,99999.0,99999.0,99999.0,99999.0,99999.0,458.7,716.72,228.56,345.32,992.0,1334.84,1889.17,2261.86,2383.28,2507.88,2635.65,2733.56,2833.26,2900.71,3003.39,3072.83,3072.83,3072.83,3038.01,3003.39,2900.71,2766.59,2414.14,1600.0,1032.08,821.48,209.91,258.02,99999.0,99999.0,99999.0,99999.0,99999.0,99999.0,99999.0,99999.0,99999.0,99999.0,99999.0,99999.0,99999.0,99999.0,99999.0,99999.0,99999.0,99999.0,99999.0,99999.0,99999.0,99999.0,99999.0,99999.0,99999.0,99999.0,99999.0,99999.0,99999.0,99999.0,99999.0,99999.0,99999.0,99999.0,99999.0,99999.0,99999.0,99999.0,99999.0,99999.0,99999.0,99999.0,99999.0,99999.0,99999.0,99999.0,99999.0,99999.0,99999.0,258.02,209.91,99999.0,57.14,345.32,114.68,432.12,219.13,99999.0,99999.0,99999.0,99999.0,99999.0,99999.0,99999.0,99999.0,99999.0,99999.0,99999.0,99999.0,99999.0,99999.0,99999.0,99999.0,99999.0,99999.0,99999.0,99999.0,99999.0,99999.0,99999.0,99999.0,99999.0,99999.0,99999.0,99999.0,99999.0,99999.0,99999.0,99999.0,99999.0,99999.0,99999.0,99999.0,6.35,19.44,25.4,48.01,22.32,2.48,99999.0,39.68,48.01,22.32,48.01,48.01,28.67,52.48,19.44,8.04,0.4,114.68,35.81,62.0,35.81,25.4,43.75,268.24,419.12,528.64,543.22,419.12,393.73,258.02,345.32,322.3,543.22,432.12,432.12,369.12,300.08,258.02,357.12,357.12,528.64,528.64,543.22,572.98,300.08,135.81,77.77,143.25,135.81,192.05,174.99,228.56,183.42,121.52,209.91,238.18,135.81,128.56,166.76,192.05,121.52,445.31,268.24,357.12,89.28,48.01,114.68,219.13,166.76,48.01,67.06,62.0,101.58,57.14,35.81,48.01,25.4,16.76,9.92,25.4,6.35,72.32,32.14,39.68,28.67,22.32,22.32,14.28,22.32,16.76,14.28,16.76,9.92,99999.0,99999.0,99999.0,99999.0,99999.0,99999.0,99999.0,99999.0,99999.0,99999.0,99999.0,99999.0,99999.0,99999.0,99999.0,99999.0,99999.0,99999.0,99999.0,99999.0
99999.0,99999.0,99999.0,99999.0,99999.0,99999.0,99999.0,99999.0,99999.0,99999.0,99999.0,99999.0,99999.0,99999.0,99999.0,99999.0,99999.0,43.75,121.52,248.0,166.76,192.05,209.91,128.56,166.76,166.76,192.05,192.05,62.0,143.25,209.91,200.88,333.71,588.16,876.53,750.85,733.68,699.96,381.33,357.12,43.75,99999.0,99999.0,99999.0,0.0,9.92,99999.0,28.67,19.44,4.86,35.81,35.81,166.76,322.3,0.0,6.35,99999.0,406.32,486.08,143.25,99999.0,99999.0,99999.0,43.75,108.03,95.33,158.72,209.91,200.88,158.72,158.72,114.68,114.68,99999.0,9.92,12.0,39.68,4.86,99999.0,99999.0,99999.0,8.04,48.01,2.48,28.67,99999.0,14.28,128.56,57.14,9.92,99999.0,99999.0,99999.0,99999.0,22.32,345.32,238.18,14.28,0.4,99999.0,99999.0,99999.0,99999.0,99999.0,121.52,311.09,419.12,419.12,603.53,472.29,1157.07,603.53,289.27,99999.0,99999.0,99999.0,99999.0,99999.0,99999.0,99999.0,99999.0,99999.0,99999.0,99999.0,99999.0,99999.0,278.65,121.52,99999.0,258.02,821.48,1357.95,1754.75,2057.02,2291.92,2445.19,2571.37,2668.09,2766.59,2866.89,2968.96,3072.83,3072.83,3072.83,2934.74,2799.83,2603.41,2635.65,2383.28,2202.34,2202.34,2414.14,2114.55,1807.92,972.26,345.32,99999.0,99999.0,99999.0,99999.0,99999.0,99999.0,99999.0,99999.0,99999.0,99999.0,99999.0,99999.0,99999.0,99999.0,99999.0,99999.0,99999.0,99999.0,99999.0,99999.0,99999.0,99999.0,99999.0,99999.0,99999.0,99999.0,99999.0,99999.0,99999.0,99999.0,99999.0,99999.0,99999.0,99999.0,99999.0,99999.0,99999.0,99999.0,99999.0,99999.0,99999.0,406.32,158.72,333.71,667.02,458.7,543.22,432.12,393.73,238.18,345.32,228.56,150.88,135.81,278.65,183.42,89.28,99999.0,99999.0,99999.0,99999.0,99999.0,99999.0,99999.0,99999.0,99999.0,99999.0,99999.0,99999.0,99999.0,99999.0,99999.0,99999.0,12.0,99999.0,99999.0,99999.0,99999.0,99999.0,99999.0,99999.0,99999.0,99999.0,99999.0,8.04,89.28,143.25,166.76,0.89,99999.0,99999.0,99999.0,57.14,14.28,32.14,3.57,1.59,99999.0,52.48,35.81,48.01,19.44,72.32,19.44,57.14,57.14,48.01,28.67,19.44,22.32,35.81,101.58,52.48,52.48,357.12,393.73,914.23,785.76,1093.68,1289.21,1357.95,1052.41,683.39,500.07,572.98,393.73,248.0,183.42,406.32,572.98,619.11,406.32,357.12,381.33,432.12,419.12,322.3,357.12,108.03,174.99,166.76,158.72,174.99,192.05,219.13,258.02,121.52,143.25,25.4,48.01,500.07,733.68,1114.61,972.26,486.08,200.88,238.18,248.0,83.43,514.25,733.68,528.64,857.98,419.12,192.05,209.91,300.08,166.76,228.56,322.3,52.48,14.28,311.09,228.56,67.06,39.68,14.28,9.92,4.86,12.0,19.44,25.4,28.67,12.0,3.57,0.4,158.72,209.91,200.88,83.43,14.28,43.75,99999.0,99999.0,99999.0,121.52,472.29,83.43,166.76,174.99,248.0,174.99,0.89,99999.0
192.05,25.4,99999.0,99999.0,99999.0,99999.0,99999.0,99999.0,99999.0,99999.0,99999.0,99999.0,99999.0,99999.0,101.58,300.08,486.08,785.76,558.0,750.85,472.29,733.68,716.72,528.64,699.96,821.48,857.98,821.48,667.02,992.0,992.0,1728.46,1222.25,1135.74,1093.68,1093.68,1114.61,699.96,634.88,603.53,716.72,603.53,500.07,322.3,0.89,0.89,95.33,219.13,248.0,150.88,150.88,150.88,143.25,183.42,248.0,311.09,472.29,445.31,603.53,699.96,603.53,393.73,238.18,200.88,95.33,32.14,99999.0,99999.0,99999.0,99999.0,99999.0,28.67,19.44,3.57,3.57,16.76,99999.0,99999.0,99999.0,99999.0,99999.0,99999.0,4.86,99999.0,99999.0,99999.0,14.28,101.58,200.88,99999.0,101.58,114.68,99999.0,99999.0,357.12,322.3,238.18,4.86,99999.0,99999.0,99999.0,99999.0,99999.0,99999.0,99999.0,99999.0,12.0,150.88,238.18,322.3,369.12,289.27,369.12,99999.0,99999.0,99999.0,99999.0,99999.0,99999.0,99999.0,99999.0,99999.0,99999.0,99999.0,99999.0,99999.0,99999.0,2.48,114.68,486.08,683.39,1072.95,1404.77,1944.32,2322.18,2445.19,2571.37,2733.56,2900.71,2934.74,2968.96,3003.39,3003.39,2900.71,2603.41,2445.19,1476.5,99999.0,1525.3,857.98,750.85,43.75,99999.0,99999.0,99999.0,99999.0,99999.0,99999.0,99999.0,99999.0,99999.0,99999.0,99999.0,99999.0,99999.0,99999.0,99999.0,99999.0,99999.0,99999.0,99999.0,99999.0,99999.0,99999.0,99999.0,99999.0,99999.0,99999.0,99999.0,99999.0,99999.0,99999.0,99999.0,99999.0,99999.0,99999.0,99999.0,99999.0,99999.0,99999.0,99999.0,99999.0,99999.0,99999.0,99999.0,289.27,28.67,500.07,619.11,972.26,716.72,500.07,345.32,322.3,345.32,289.27,248.0,311.09,228.56,143.25,174.99,62.0,209.91,166.76,300.08,248.0,248.0,209.91,99999.0,99999.0,99999.0,99999.0,99999.0,99999.0,67.06,52.48,99999.0,99999.0,99999.0,99999.0,99999.0,2.48,99999.0,12.0,99999.0,32.14,57.14,48.01,95.33,99999.0,25.4,14.28,72.32,248.0,158.72,83.43,219.13,83.43,99999.0,25.4,52.48,28.67,28.67,0.4,32.14,52.48,16.76,99999.0,35.81,22.32,32.14,43.75,77.77,67.06,67.06,89.28,43.75,393.73,108.03,72.32,369.12,238.18,588.16,514.25,839.63,914.23,1135.74,895.28,895.28,821.48,345.32,572.98,248.0,311.09,258.02,228.56,268.24,209.91,238.18,258.02,311.09,300.08,209.91,166.76,174.99,114.68,166.76,143.25,311.09,248.0,258.02,174.99,121.52,39.68,114.68,345.32,486.08,972.26,1676.48,933.37,588.16,699.96,258.02,238.18,258.02,166.76,486.08,472.29,1289.21,419.12,733.68,406.32,62.0,52.48,39.68,32.14,89.28,219.13,83.43,108.03,39.68,25.4,35.81,19.44,19.44,22.32,57.14,25.4,32.14,39.68,4.86,16.76,200.88,345.32,268.24,500.07,634.88,603.53,486.08,219.13,43.75,83.43,143.25,785.76,528.64,750.85,543.22,768.21,716.72,839.63
406.32,406.32,200.88,62.0,77.77,99999.0,99999.0,99999.0,99999.0,99999.0,99999.0,99999.0,99999.0,99999.0,99999.0,99999.0,108.03,158.72,406.32,445.31,572.98,419.12,419.12,785.76,1334.84,1357.95,857.98,768.21,683.39,876.53,952.72,1032.08,716.72,432.12,650.85,445.31,528.64,333.71,333.71,322.3,345.32,419.12,369.12,1052.41,406.32,48.01,83.43,219.13,62.0,200.88,192.05,258.02,300.08,248.0,289.27,248.0,300.08,345.32,445.31,381.33,419.12,445.31,558.0,369.12,300.08,393.73,393.73,357.12,322.3,311.09,278.65,19.44,108.03,174.99,143.25,121.52,95.33,77.77,57.14,57.14,62.0,32.14,67.06,16.76,99999.0,72.32,200.88,311.09,300.08,322.3,311.09,322.3,99999.0,52.48,381.33,311.09,333.71,192.05,72.32,99999.0,99999.0,99999.0,99999.0,39.68,6.35,99999.0,99999.0,99999.0,135.81,143.25,311.09,432.12,876.53,1500.8,1135.74,572.98,99999.0,99999.0,99999.0,99999.0,99999.0,99999.0,99999.0,99999.0,99999.0,99999.0,300.08,445.31,419.12,369.12,803.52,1052.41,1500.8,1916.65,2202.34,2414.14,2476.43,2571.37,2603.41,2539.53,2539.53,2603.41,2799.83,2866.89,2414.14,1500.8,289.27,99999.0,99999.0,99999.0,99999.0,99999.0,99999.0,99999.0,99999.0,99999.0,99999.0,99999.0,99999.0,99999.0,99999.0,99999.0,99999.0,99999.0,99999.0,99999.0,99999.0,99999.0,99999.0,99999.0,99999.0,99999.0,99999.0,99999.0,99999.0,99999.0,99999.0,99999.0,99999.0,99999.0,99999.0,99999.0,99999.0,99999.0,99999.0,99999.0,99999.0,99999.0,99999.0,99999.0,99999.0,99999.0,99999.0,99999.0,99999.0,150.88,588.16,1222.25,528.64,514.25,543.22,345.32,219.13,166.76,200.88,209.91,192.05,238.18,219.13,381.33,268.24,268.24,128.56,166.76,238.18,219.13,166.76,166.76,228.56,258.02,183.42,99999.0,99999.0,99999.0,25.4,99999.0,99999.0,99999.0,183.42,52.48,57.14,89.28,25.4,28.67,77.77,135.81,128.56,67.06,83.43,114.68,135.81,183.42,108.03,174.99,135.81,369.12,406.32,77.77,48.01,28.67,39.68,28.67,99999.0,99999.0,62.0,32.14,4.86,0.89,22.32,19.44,22.32,32.14,48.01,62.0,52.48,95.33,14.28,67.06,500.07,500.07,406.32,300.08,558.0,839.63,1011.94,857.98,785.76,750.85,876.53,543.22,300.08,268.24,381.33,393.73,432.12,486.08,333.71,357.12,381.33,369.12,248.0,406.32,289.27,357.12,393.73,345.32,333.71,258.02,322.3,322.3,333.71,268.24,108.03,83.43,192.05,393.73,393.73,1114.61,1574.9,1093.68,500.07,432.12,143.25,369.12,268.24,150.88,219.13,357.12,803.52,1072.95,289.27,588.16,238.18,369.12,57.14,62.0,72.32,228.56,289.27,174.99,128.56,52.48,35.81,22.32,67.06,128.56,219.13,200.88,166.76,289.27,558.0,158.72,158.72,406.32,357.12,445.31,514.25,528.64,458.7,914.23,768.21,683.39,528.64,333.71,514.25,650.85,572.98,733.68,857.98,716.72
667.02,57.14,289.27,300.08,209.91,19.44,200.88,333.71,72.32,99999.0,99999.0,99999.0,99999.0,99999.0,99999.0,9.92,99999.0,99999.0,25.4,99999.0,9.92,39.68,200.88,588.16,150.88,268.24,238.18,219.13,238.18,432.12,486.08,209.91,108.03,114.68,135.81,143.25,219.13,258.02,322.3,803.52,603.53,558.0,683.39,514.25,572.98,357.12,108.03,121.52,108.03,83.43,121.52,135.81,77.77,158.72,289.27,289.27,174.99,150.88,150.88,150.88,278.65,300.08,268.24,369.12,486.08,311.09,472.29,514.25,486.08,458.7,300.08,322.3,135.81,300.08,278.65,228.56,219.13,174.99,150.88,158.72,150.88,143.25,114.68,67.06,143.25,300.08,289.27,300.08,268.24,432.12,322.3,311.09,158.72,99999.0,99999.0,143.25,62.0,99999.0,99999.0,99999.0,99999.0,99999.0,99999.0,99999.0,99999.0,99999.0,2.48,57.14,39.68,28.67,28.67,158.72,108.03,278.65,432.12,1032.08,1178.6,803.52,99999.0,99999.0,99999.0,99999.0,99999.0,99999.0,99999.0,99999.0,683.39,278.65,472.29,750.85,839.63,1404.77,1754.75,2028.54,2232.0,2352.63,2322.18,2143.62,1889.17,1834.81,1650.79,558.0,876.53,1311.92,972.26,99999.0,99999.0,99999.0,99999.0,99999.0,99999.0,99999.0,99999.0,99999.0,99999.0,99999.0,99999.0,89.28,99999.0,99999.0,99999.0,99999.0,99999.0,35.81,99999.0,99999.0,99999.0,99999.0,99999.0,99999.0,99999.0,99999.0,99999.0,99999.0,99999.0,99999.0,99999.0,99999.0,99999.0,99999.0,99999.0,99999.0,99999.0,99999.0,99999.0,99999.0,99999.0,99999.0,99999.0,99999.0,99999.0,99999.0,99999.0,634.88,514.25,1032.08,634.88,528.64,514.25,393.73,158.72,289.27,89.28,135.81,135.81,101.58,150.88,268.24,289.27,278.65,219.13,166.76,57.14,6.35,99999.0,52.48,72.32,158.72,166.76,183.42,1.59,99999.0,4.86,99999.0,39.68,43.75,48.01,43.75,83.43,135.81,128.56,166.76,19.44,52.48,108.03,114.68,72.32,72.32,108.03,108.03,39.68,108.03,101.58,458.7,128.56,28.67,6.35,83.43,83.43,25.4,99999.0,99999.0,14.28,35.81,39.68,43.75,48.01,25.4,28.67,52.48,32.14,19.44,28.67,32.14,48.01,67.06,48.01,19.44,183.42,192.05,345.32,458.7,472.29,558.0,603.53,683.39,683.39,803.52,683.39,650.85,528.64,393.73,500.07,514.25,445.31,472.29,603.53,699.96,603.53,393.73,333.71,381.33,419.12,311.09,393.73,369.12,345.32,322.3,248.0,248.0,200.88,192.05,158.72,39.68,77.77,228.56,1093.68,1114.61,1052.41,992.0,785.76,406.32,445.31,716.72,634.88,716.72,683.39,1052.41,1011.94,1404.77,1650.79,895.28,248.0,821.48,1052.41,1452.39,528.64,268.24,95.33,52.48,48.01,43.75,166.76,311.09,228.56,143.25,381.33,514.25,406.32,135.81,311.09,458.7,381.33,381.33,572.98,357.12,486.08,952.72,933.37,543.22,289.27,558.0,472.29,135.81,322.3,345.32,381.33,458.7,543.22,667.02
8.04,99999.0,99999.0,99999.0,183.42,192.05,369.12,14.28,99999.0,99999.0,99999.0,99999.0,158.72,135.81,150.88,89.28,333.71,200.88,200.88,333.71,311.09,183.42,39.68,48.01,248.0,228.56,345.32,393.73,733.68,345.32,619.11,381.33,634.88,1114.61,895.28,419.12,381.33,432.12,588.16,1178.6,1157.07,803.52,1114.61,821.48,634.88,952.72,733.68,1200.32,803.52,683.39,357.12,357.12,39.68,558.0,258.02,258.02,289.27,150.88,150.88,458.7,238.18,289.27,300.08,381.33,419.12,528.64,500.07,419.12,500.07,445.31,543.22,472.29,300.08,300.08,300.08,289.27,192.05,183.42,166.76,166.76,192.05,143.25,150.88,150.88,158.72,209.91,200.88,300.08,300.08,300.08,268.24,99999.0,39.68,99999.0,32.14,83.43,99999.0,99999.0,99999.0,99999.0,99999.0,99999.0,99999.0,99999.0,99999.0,0.0,1.59,135.81,77.77,200.88,345.32,300.08,174.99,99999.0,99999.0,135.81,108.03,99999.0,99999.0,99999.0,99999.0,99999.0,99999.0,99999.0,99999.0,99999.0,99999.0,62.0,543.22,603.53,1072.95,1381.26,1834.81,2383.28,2571.37,2603.41,2352.63,2000.27,1289.21,952.72,99999.0,99999.0,99999.0,99999.0,99999.0,99999.0,99999.0,99999.0,99999.0,99999.0,99999.0,99999.0,99999.0,99999.0,99999.0,99999.0,99999.0,99999.0,183.42,289.27,543.22,821.48,572.98,558.0,486.08,128.56,99999.0,99999.0,99999.0,99999.0,99999.0,99999.0,99999.0,99999.0,99999.0,99999.0,99999.0,99999.0,99999.0,99999.0,99999.0,99999.0,99999.0,99999.0,99999.0,99999.0,99999.0,99999.0,99999.0,99999.0,99999.0,99999.0,32.14,733.68,803.52,733.68,514.25,345.32,419.12,333.71,345.32,22.32,0.0,99999.0,99999.0,39.68,108.03,166.76,248.0,219.13,150.88,192.05,121.52,83.43,8.04,99999.0,99999.0,99999.0,99999.0,99999.0,121.52,89.28,158.72,35.81,43.75,52.48,67.06,108.03,128.56,166.76,101.58,43.75,89.28,101.58,43.75,95.33,108.03,89.28,158.72,458.7,393.73,876.53,114.68,43.75,150.88,16.76,28.67,62.0,39.68,25.4,77.77,43.75,32.14,32.14,89.28,95.33,52.48,25.4,43.75,35.81,35.81,25.4,32.14,39.68,121.52,48.01,32.14,28.67,128.56,458.7,369.12,445.31,445.31,228.56,500.07,311.09,572.98,381.33,699.96,514.25,500.07,432.12,528.64,634.88,683.39,472.29,406.32,603.53,458.7,683.39,558.0,572.98,543.22,472.29,393.73,228.56,322.3,278.65,192.05,166.76,209.91,200.88,158.72,166.76,39.68,166.76,572.98,733.68,1011.94,1266.69,1032.08,588.16,857.98,785.76,895.28,733.68,895.28,821.48,857.98,1093.68,1625.3,1702.37,1311.92,1032.08,952.72,1178.6,572.98,1135.74,750.85,268.24,67.06,77.77,300.08,458.7,528.64,166.76,345.32,572.98,472.29,369.12,406.32,768.21,839.63,699.96,857.98,914.23,972.26,500.07,183.42,768.21,166.76,19.44,83.43,9.92,322.3,28.67,48.01,16.76,174.99,121.52
99999.0,99999.0,99999.0,99999.0,99999.0,99999.0,228.56,77.77,99999.0,99999.0,99999.0,99999.0,99999.0,99999.0,99999.0,99999.0,99999.0,99999.0,22.32,268.24,716.72,32.14,192.05,248.0,258.02,166.76,248.0,238.18,369.12,135.81,128.56,158.72,209.91,345.32,588.16,1072.95,1135.74,839.63,803.52,458.7,1032.08,1625.3,1452.39,1452.39,1114.61,1266.69,1476.5,1222.25,1834.81,1676.48,1200.32,1781.24,1200.32,650.85,572.98,445.31,311.09,183.42,192.05,333.71,357.12,345.32,228.56,300.08,333.71,345.32,472.29,472.29,445.31,432.12,393.73,357.12,419.12,322.3,357.12,289.27,166.76,150.88,108.03,143.25,166.76,77.77,174.99,25.4,108.03,83.43,57.14,114.68,150.88,62.0,121.52,143.25,99999.0,99999.0,67.06,248.0,209.91,219.13,99999.0,99999.0,99999.0,99999.0,228.56,143.25,99999.0,0.0,28.67,300.08,150.88,135.81,200.88,558.0,650.85,619.11,445.31,99999.0,99999.0,99999.0,99999.0,99999.0,99999.0,99999.0,99999.0,99999.0,99999.0,99999.0,99999.0,99999.0,99999.0,514.25,699.96,1525.3,2028.54,2414.14,2603.41,2668.09,2603.41,2000.27,768.21,101.58,99999.0,99999.0,99999.0,99999.0,99999.0,99999.0,99999.0,99999.0,99999.0,99999.0,99999.0,99999.0,99999.0,99999.0,99999.0,99999.0,99999.0,99999.0,406.32,543.22,699.96,650.85,1550.0,1428.48,209.91,16.76,99999.0,99999.0,99999.0,99999.0,99999.0,99999.0,99999.0,99999.0,99999.0,99999.0,99999.0,99999.0,99999.0,99999.0,99999.0,99999.0,99999.0,99999.0,99999.0,99999.0,99999.0,99999.0,99999.0,99999.0,25.4,135.81,322.3,458.7,432.12,311.09,472.29,486.08,322.3,268.24,158.72,2.48,99999.0,99999.0,52.48,77.77,108.03,166.76,183.42,174.99,228.56,143.25,150.88,128.56,39.68,99999.0,99999.0,32.14,135.81,35.81,25.4,62.0,89.28,39.68,67.06,95.33,89.28,192.05,108.03,219.13,406.32,183.42,192.05,77.77,135.81,108.03,114.68,128.56,209.91,895.28,209.91,101.58,72.32,101.58,135.81,19.44,32.14,52.48,77.77,95.33,108.03,89.28,52.48,52.48,95.33,62.0,48.01,57.14,39.68,39.68,28.67,43.75,89.28,158.72,62.0,89.28,43.75,28.67,258.02,432.12,393.73,238.18,289.27,432.12,278.65,381.33,381.33,588.16,543.22,393.73,458.7,572.98,514.25,558.0,543.22,588.16,486.08,432.12,458.7,357.12,432.12,486.08,393.73,393.73,369.12,278.65,200.88,209.91,192.05,209.91,135.81,128.56,166.76,150.88,95.33,48.01,472.29,667.02,543.22,1114.61,572.98,1200.32,1428.48,1452.39,1476.5,952.72,839.63,1157.07,1178.6,952.72,1072.95,952.72,821.48,1404.77,785.76,1266.69,1311.92,1011.94,750.85,619.11,486.08,289.27,543.22,406.32,238.18,514.25,381.33,486.08,839.63,619.11,619.11,572.98,914.23,785.76,650.85,406.32,716.72,634.88,500.07,458.7,9.92,183.42,228.56,101.58,0.89,311.09,14.28,0.4,99999.0,99999.0
99999.0,99999.0,99999.0,99999.0,99999.0,99999.0,99999.0,99999.0,114.68,32.14,99999.0,99999.0,99999.0,99999.0,99999.0,99999.0,99999.0,99999.0,89.28,278.65,32.14,52.48,101.58,248.0,322.3,369.12,192.05,300.08,514.25,895.28,1600.0,1011.94,1334.84,2028.54,2028.54,1650.79,514.25,821.48,716.72,914.23,768.21,821.48,650.85,588.16,1011.94,603.53,1032.08,895.28,1178.6,1834.81,1428.48,1650.79,1834.81,1222.25,857.98,369.12,528.64,486.08,278.65,300.08,311.09,258.02,289.27,183.42,209.91,300.08,311.09,500.07,458.7,458.7,558.0,381.33,357.12,357.12,311.09,219.13,300.08,228.56,228.56,289.27,300.08,209.91,121.52,143.25,150.88,114.68,35.81,6.35,22.32,99999.0,99999.0,99999.0,99999.0,99999.0,57.14,0.4,99999.0,99999.0,99999.0,99999.0,99999.0,0.89,99999.0,99999.0,99999.0,99999.0,99999.0,99999.0,4.86,393.73,572.98,67.06,99999.0,278.65,381.33,67.06,99999.0,99999.0,99999.0,99999.0,99999.0,99999.0,99999.0,99999.0,99999.0,99999.0,99999.0,99999.0,99999.0,588.16,1266.69,1807.92,2172.88,2476.43,2635.65,2766.59,2383.28,1428.48,72.32,99999.0,99999.0,99999.0,99999.0,99999.0,99999.0,99999.0,99999.0,99999.0,99999.0,99999.0,99999.0,99999.0,99999.0,99999.0,99999.0,99999.0,99999.0,99999.0,99999.0,99999.0,99999.0,6.35,99999.0,99999.0,99999.0,99999.0,99999.0,99999.0,99999.0,99999.0,99999.0,99999.0,99999.0,99999.0,99999.0,99999.0,99999.0,99999.0,99999.0,99999.0,99999.0,99999.0,99999.0,99999.0,99999.0,99999.0,99999.0,99999.0,32.14,268.24,67.06,500.07,619.11,500.07,322.3,333.71,228.56,322.3,192.05,1.59,99999.0,99999.0,19.44,67.06,174.99,128.56,108.03,158.72,174.99,121.52,150.88,200.88,174.99,114.68,95.33,95.33,183.42,128.56,35.81,128.56,72.32,19.44,108.03,135.81,183.42,166.76,121.52,128.56,174.99,143.25,143.25,135.81,192.05,158.72,128.56,121.52,89.28,183.42,238.18,381.33,114.68,22.32,14.28,67.06,16.76,19.44,89.28,43.75,77.77,89.28,114.68,95.33,101.58,101.58,89.28,101.58,67.06,57.14,67.06,83.43,114.68,143.25,48.01,108.03,101.58,95.33,35.81,32.14,158.72,150.88,406.32,248.0,406.32,486.08,381.33,345.32,278.65,572.98,219.13,486.08,500.07,716.72,345.32,486.08,357.12,558.0,278.65,322.3,322.3,311.09,289.27,300.08,322.3,357.12,333.71,268.24,166.76,200.88,121.52,219.13,128.56,135.81,166.76,158.72,183.42,158.72,108.03,83.43,62.0,52.48,101.58,77.77,150.88,219.13,278.65,514.25,500.07,821.48,1157.07,1404.77,1114.61,1052.41,803.52,857.98,1650.79,1072.95,1093.68,952.72,1032.08,821.48,634.88,558.0,543.22,588.16,311.09,500.07,619.11,821.48,1093.68,1011.94,603.53,634.88,750.85,634.88,419.12,528.64,558.0,52.48,95.33,150.88,333.71,333.71,238.18,432.12,150.88,458.7,101.58,52.48,22.32,99999.0
99999.0,99999.0,99999.0,99999.0,99999.0,99999.0,99999.0,99999.0,99999.0,99999.0,99999.0,99999.0,99999.0,99999.0,99999.0,4.86,28.67,108.03,209.91,62.0,108.03,128.56,393.73,357.12,174.99,333.71,603.53,1052.41,486.08,268.24,486.08,1357.95,952.72,785.76,572.98,992.0,1011.94,1476.5,785.76,634.88,572.98,1404.77,1114.61,733.68,785.76,1452.39,1525.3,1114.61,1032.08,1266.69,1452.39,1157.07,1357.95,1676.48,1334.84,821.48,83.43,445.31,219.13,406.32,572.98,200.88,219.13,209.91,158.72,248.0,238.18,289.27,150.88,174.99,300.08,311.09,369.12,345.32,311.09,300.08,289.27,289.27,278.65,258.02,289.27,150.88,89.28,150.88,72.32,43.75,8.04,0.0,99999.0,99999.0,99999.0,99999.0,99999.0,99999.0,99999.0,99999.0,16.76,0.0,99999.0,99999.0,99999.0,99999.0,311.09,95.33,99999.0,99999.0,99999.0,99999.0,99999.0,99999.0,99999.0,258.02,486.08,89.28,99999.0,101.58,99999.0,99999.0,99999.0,99999.0,99999.0,99999.0,99999.0,99999.0,99999.0,99999.0,99999.0,99999.0,99999.0,99999.0,634.88,1334.84,1834.81,2322.18,2414.14,2172.88,2114.55,114.68,99999.0,99999.0,99999.0,99999.0,99999.0,99999.0,99999.0,99999.0,99999.0,99999.0,99999.0,99999.0,99999.0,99999.0,99999.0,99999.0,99999.0,99999.0,99999.0,99999.0,99999.0,99999.0,99999.0,99999.0,99999.0,99999.0,99999.0,99999.0,99999.0,99999.0,99999.0,99999.0,99999.0,99999.0,99999.0,99999.0,99999.0,99999.0,99999.0,99999.0,99999.0,99999.0,99999.0,99999.0,99999.0,99999.0,99999.0,99999.0,128.56,914.23,1032.08,1266.69,821.48,839.63,803.52,486.08,445.31,322.3,158.72,12.0,99999.0,99999.0,99999.0,48.01,143.25,143.25,183.42,174.99,101.58,101.58,128.56,72.32,121.52,183.42,166.76,108.03,43.75,22.32,158.72,135.81,128.56,83.43,174.99,121.52,67.06,43.75,83.43,200.88,158.72,166.76,150.88,183.42,135.81,143.25,135.81,166.76,158.72,183.42,135.81,150.88,183.42,445.31,43.75,39.68,89.28,135.81,89.28,48.01,114.68,108.03,72.32,72.32,77.77,72.32,67.06,77.77,89.28,67.06,72.32,83.43,83.43,95.33,95.33,101.58,114.68,150.88,121.52,150.88,101.58,209.91,108.03,143.25,289.27,183.42,393.73,528.64,543.22,528.64,588.16,528.64,357.12,514.25,406.32,278.65,419.12,357.12,458.7,369.12,393.73,322.3,311.09,357.12,300.08,345.32,322.3,369.12,300.08,248.0,228.56,121.52,248.0,300.08,311.09,333.71,311.09,268.24,300.08,289.27,258.02,219.13,228.56,209.91,150.88,200.88,209.91,183.42,219.13,268.24,289.27,821.48,716.72,1114.61,2000.27,1944.32,1011.94,1266.69,1289.21,1452.39,857.98,821.48,1093.68,699.96,634.88,588.16,558.0,238.18,558.0,716.72,619.11,1093.68,528.64,683.39,121.52,219.13,28.67,99999.0,99999.0,32.14,89.28,101.58,268.24,667.02,952.72,750.85,333.71,458.7,381.33,95.33,14.28,99999.0,89.28,99999.0
99999.0,99999.0,99999.0,99999.0,99999.0,99999.0,99999.0,99999.0,99999.0,99999.0,99999.0,99999.0,99999.0,99999.0,0.89,2.48,14.28,28.67,4.86,9.92,25.4,228.56,381.33,121.52,322.3,514.25,1452.39,2507.88,158.72,4.86,52.48,667.02,1676.48,1550.0,1135.74,500.07,1157.07,1500.8,2635.65,1889.17,1452.39,1625.3,1222.25,1200.32,914.23,1011.94,1157.07,1244.37,1452.39,1476.5,1093.68,1650.79,1550.0,1178.6,876.53,1600.0,914.23,228.56,166.76,143.25,200.88,150.88,158.72,166.76,150.88,150.88,158.72,228.56,289.27,345.32,357.12,458.7,393.73,458.7,381.33,357.12,311.09,333.71,300.08,300.08,300.08,268.24,183.42,150.88,89.28,4.86,99999.0,99999.0,99999.0,99999.0,99999.0,99999.0,99999.0,99999.0,99999.0,99999.0,99999.0,99999.0,99999.0,99999.0,99999.0,99999.0,28.67,219.13,300.08,333.71,472.29,311.09,99999.0,99999.0,99999.0,99999.0,99999.0,99999.0,99999.0,99999.0,99999.0,99999.0,99999.0,99999.0,99999.0,99999.0,99999.0,99999.0,99999.0,99999.0,99999.0,99999.0,99999.0,99999.0,99999.0,228.56,1135.74,1266.69,821.48,1676.48,1135.74,43.75,99999.0,99999.0,99999.0,99999.0,99999.0,99999.0,99999.0,99999.0,99999.0,99999.0,99999.0,99999.0,99999.0,99999.0,99999.0,99999.0,99999.0,99999.0,99999.0,99999.0,99999.0,99999.0,99999.0,99999.0,99999.0,99999.0,99999.0,99999.0,99999.0,99999.0,99999.0,99999.0,99999.0,99999.0,99999.0,99999.0,99999.0,99999.0,99999.0,99999.0,99999.0,99999.0,99999.0,99999.0,99999.0,99999.0,99999.0,432.12,1114.61,699.96,1550.0,1052.41,992.0,667.02,619.11,572.98,558.0,248.0,183.42,99999.0,99999.0,99999.0,99999.0,6.35,67.06,89.28,150.88,89.28,108.03,77.77,89.28,62.0,0.89,1.59,77.77,135.81,114.68,22.32,57.14,228.56,128.56,121.52,200.88,200.88,67.06,166.76,128.56,166.76,77.77,101.58,158.72,166.76,135.81,135.81,166.76,183.42,89.28,174.99,143.25,248.0,345.32,528.64,150.88,121.52,108.03,114.68,135.81,121.52,52.48,32.14,72.32,35.81,35.81,57.14,57.14,62.0,35.81,52.48,83.43,72.32,57.14,57.14,83.43,72.32,89.28,101.58,121.52,150.88,174.99,174.99,128.56,135.81,248.0,200.88,278.65,588.16,419.12,572.98,333.71,333.71,472.29,357.12,322.3,393.73,432.12,432.12,419.12,357.12,345.32,289.27,333.71,322.3,357.12,406.32,311.09,381.33,333.71,333.71,300.08,300.08,258.02,268.24,248.0,345.32,311.09,345.32,333.71,278.65,209.91,258.02,228.56,150.88,200.88,228.56,258.02,289.27,209.91,278.65,619.11,768.21,857.98,1266.69,1157.07,1244.37,895.28,1334.84,1311.92,1200.32,992.0,952.72,733.68,733.68,750.85,876.53,683.39,768.21,876.53,803.52,393.73,99999.0,99999.0,99999.0,588.16,345.32,99999.0,99999.0,62.0,228.56,322.3,558.0,345.32,667.02,432.12,857.98,289.27,99999.0,99999.0,99999.0,99999.0,99999.0,99999.0,99999.0
99999.0,99999.0,99999.0,99999.0,99999.0,99999.0,99999.0,99999.0,99999.0,99999.0,99999.0,99999.0,99999.0,99999.0,99999.0,2.48,3.57,2.48,22.32,248.0,650.85,333.71,278.65,369.12,300.08,750.85,914.23,333.71,99999.0,39.68,667.02,667.02,99999.0,166.76,2.48,57.14,683.39,1476.5,1807.92,1754.75,1476.5,1781.24,1404.77,1600.0,1650.79,857.98,972.26,1114.61,1525.3,1200.32,768.21,1200.32,992.0,1266.69,683.39,1404.77,228.56,500.07,572.98,603.53,393.73,311.09,258.02,278.65,228.56,289.27,209.91,174.99,209.91,300.08,357.12,458.7,528.64,458.7,458.7,393.73,381.33,333.71,432.12,322.3,278.65,300.08,200.88,158.72,67.06,99999.0,99999.0,99999.0,99999.0,99999.0,99999.0,99999.0,99999.0,99999.0,99999.0,99999.0,99999.0,99999.0,99999.0,99999.0,99999.0,99999.0,22.32,101.58,174.99,238.18,248.0,289.27,311.09,158.72,99999.0,99999.0,99999.0,99999.0,99999.0,32.14,99999.0,99999.0,99999.0,99999.0,99999.0,99999.0,99999.0,99999.0,99999.0,99999.0,99999.0,99999.0,99999.0,99999.0,99999.0,99999.0,99999.0,99999.0,99999.0,895.28,158.72,99999.0,99999.0,99999.0,99999.0,99999.0,99999.0,99999.0,99999.0,99999.0,99999.0,99999.0,99999.0,99999.0,99999.0,99999.0,99999.0,99999.0,99999.0,99999.0,99999.0,99999.0,99999.0,99999.0,99999.0,99999.0,99999.0,99999.0,99999.0,99999.0,99999.0,99999.0,99999.0,99999.0,99999.0,99999.0,99999.0,99999.0,99999.0,99999.0,99999.0,99999.0,99999.0,99999.0,99999.0,99999.0,99999.0,99999.0,99999.0,258.02,228.56,1157.07,914.23,667.02,357.12,248.0,345.32,419.12,248.0,135.81,135.81,39.68,0.0,99999.0,0.0,0.0,32.14,83.43,83.43,39.68,0.89,0.0,12.0,62.0,57.14,4.86,4.86,43.75,143.25,228.56,166.76,166.76,174.99,166.76,200.88,183.42,174.99,135.81,128.56,166.76,114.68,174.99,108.03,135.81,166.76,200.88,174.99,150.88,158.72,121.52,121.52,300.08,393.73,895.28,108.03,108.03,108.03,72.32,52.48,67.06,62.0,77.77,32.14,32.14,72.32,28.67,72.32,67.06,48.01,62.0,72.32,43.75,48.01,72.32,77.77,83.43,95.33,108.03,114.68,158.72,143.25,143.25,114.68,77.77,300.08,381.33,345.32,445.31,289.27,311.09,406.32,406.32,445.31,357.12,345.32,333.71,289.27,322.3,406.32,393.73,381.33,345.32,357.12,381.33,393.73,357.12,458.7,406.32,393.73,419.12,289.27,345.32,406.32,369.12,219.13,345.32,393.73,445.31,381.33,472.29,528.64,500.07,419.12,289.27,322.3,311.09,322.3,322.3,158.72,228.56,311.09,543.22,803.52,933.37,603.53,785.76,528.64,650.85,839.63,603.53,381.33,588.16,558.0,543.22,558.0,683.39,1032.08,750.85,750.85,99999.0,99999.0,99999.0,99999.0,99999.0,99999.0,99999.0,311.09,67.06,248.0,121.52,128.56,121.52,99999.0,99999.0,183.42,99999.0,99999.0,99999.0,99999.0,99999.0,99999.0,99999.0,99999.0,99999.0
99999.0,99999.0,99999.0,99999.0,99999.0,99999.0,99999.0,99999.0,99999.0,99999.0,99999.0,99999.0,99999.0,99999.0,99999.0,99999.0,99999.0,99999.0,238.18,278.65,311.09,72.32,77.77,72.32,9.92,62.0,99999.0,99999.0,311.09,99999.0,99999.0,99999.0,99999.0,99999.0,99999.0,99999.0,99999.0,99999.0,99999.0,99999.0,6.35,514.25,619.11,1011.94,733.68,1357.95,1452.39,1476.5,1011.94,1550.0,1404.77,1135.74,839.63,803.52,914.23,634.88,419.12,543.22,588.16,486.08,699.96,619.11,333.71,432.12,803.52,716.72,300.08,311.09,209.91,300.08,200.88,209.91,322.3,369.12,406.32,369.12,419.12,419.12,393.73,311.09,289.27,300.08,300.08,158.72,77.77,99999.0,99999.0,99999.0,99999.0,99999.0,99999.0,99999.0,99999.0,99999.0,99999.0,99999.0,99999.0,99999.0,99999.0,12.0,99999.0,99999.0,19.44,67.06,121.52,143.25,192.05,238.18,248.0,200.88,99999.0,99999.0,99999.0,99999.0,19.44,311.09,99999.0,99999.0,99999.0,99999.0,99999.0,99999.0,99999.0,99999.0,99999.0,99999.0,99999.0,99999.0,99999.0,99999.0,99999.0,99999.0,99999.0,99999.0,99999.0,99999.0,99999.0,99999.0,99999.0,99999.0,99999.0,99999.0,99999.0,99999.0,99999.0,99999.0,99999.0,99999.0,99999.0,99999.0,99999.0,99999.0,99999.0,99999.0,99999.0,99999.0,99999.0,99999.0,99999.0,99999.0,99999.0,99999.0,99999.0,99999.0,99999.0,99999.0,99999.0,99999.0,99999.0,99999.0,99999.0,99999.0,99999.0,99999.0,99999.0,99999.0,99999.0,99999.0,99999.0,99999.0,99999.0,99999.0,99999.0,99999.0,99999.0,48.01,803.52,1178.6,445.31,528.64,0.89,192.05,209.91,72.32,166.76,43.75,14.28,4.86,6.35,99999.0,99999.0,99999.0,99999.0,99999.0,19.44,62.0,57.14,14.28,12.0,128.56,67.06,48.01,52.48,77.77,183.42,150.88,128.56,166.76,128.56,166.76,135.81,114.68,158.72,183.42,183.42,150.88,166.76,183.42,200.88,166.76,200.88,166.76,158.72,258.02,166.76,200.88,158.72,209.91,514.25,278.65,128.56,101.58,114.68,77.77,77.77,83.43,48.01,43.75,39.68,57.14,62.0,89.28,89.28,57.14,95.33,95.33,83.43,89.28,89.28,77.77,52.48,83.43,114.68,114.68,135.81,114.68,135.81,174.99,143.25,114.68,143.25,150.88,528.64,458.7,432.12,393.73,528.64,381.33,381.33,311.09,300.08,300.08,381.33,357.12,432.12,472.29,406.32,419.12,381.33,419.12,419.12,289.27,248.0,683.39,895.28,933.37,895.28,572.98,458.7,357.12,472.29,445.31,458.7,572.98,514.25,419.12,406.32,514.25,486.08,369.12,369.12,268.24,248.0,311.09,419.12,228.56,432.12,603.53,572.98,699.96,699.96,514.25,278.65,135.81,135.81,333.71,99999.0,77.77,62.0,99999.0,99999.0,99999.0,158.72,528.64,62.0,99999.0,99999.0,99999.0,99999.0,99999.0,83.43,857.98,486.08,99999.0,99999.0,99999.0,99999.0,99999.0,99999.0,99999.0,99999.0,99999.0,99999.0,99999.0,99999.0,99999.0,99999.0,99999.0,99999.0,99999.0
99999.0,99999.0,99999.0,99999.0,99999.0,99999.0,99999.0,99999.0,99999.0,99999.0,99999.0,99999.0,99999.0,99999.0,99999.0,99999.0,99999.0,99999.0,99999.0,99999.0,99999.0,99999.0,14.28,48.01,683.39,1428.48,99999.0,16.76,99999.0,99999.0,99999.0,99999.0,99999.0,99999.0,99999.0,99999.0,99999.0,99999.0,99999.0,99999.0,99999.0,99999.0,99999.0,278.65,322.3,821.48,992.0,1178.6,1702.37,1452.39,1650.79,1334.84,1357.95,992.0,1916.65,1807.92,992.0,528.64,458.7,419.12,500.07,419.12,357.12,289.27,268.24,258.02,248.0,209.91,209.91,289.27,357.12,445.31,472.29,472.29,419.12,432.12,406.32,419.12,381.33,393.73,333.71,289.27,311.09,200.88,101.58,28.67,25.4,99999.0,99999.0,99999.0,99999.0,99999.0,99999.0,99999.0,99999.0,99999.0,99999.0,99999.0,99999.0,99999.0,99999.0,99999.0,77.77,150.88,174.99,192.05,228.56,258.02,258.02,228.56,209.91,62.0,99999.0,77.77,333.71,650.85,558.0,99999.0,99999.0,99999.0,99999.0,99999.0,99999.0,99999.0,99999.0,99999.0,99999.0,99999.0,99999.0,99999.0,99999.0,99999.0,99999.0,99999.0,99999.0,99999.0,99999.0,99999.0,99999.0,99999.0,99999.0,99999.0,99999.0,99999.0,99999.0,99999.0,99999.0,99999.0,99999.0,99999.0,99999.0,99999.0,99999.0,99999.0,99999.0,99999.0,99999.0,99999.0,99999.0,99999.0,99999.0,99999.0,99999.0,99999.0,99999.0,99999.0,99999.0,99999.0,99999.0,99999.0,99999.0,99999.0,99999.0,99999.0,99999.0,143.25,83.43,99999.0,99999.0,99999.0,99999.0,99999.0,99999.0,99999.0,99999.0,99999.0,289.27,289.27,121.52,99999.0,99999.0,43.75,48.01,128.56,83.43,57.14,28.67,99999.0,99999.0,99999.0,99999.0,99999.0,25.4,99999.0,12.0,101.58,39.68,28.67,89.28,83.43,57.14,16.76,77.77,101.58,150.88,166.76,183.42,114.68,95.33,143.25,121.52,108.03,128.56,135.81,158.72,114.68,135.81,150.88,108.03,150.88,135.81,135.81,238.18,248.0,158.72,200.88,200.88,183.42,369.12,322.3,174.99,108.03,89.28,108.03,67.06,67.06,62.0,43.75,67.06,89.28,89.28,89.28,89.28,95.33,95.33,101.58,108.03,83.43,108.03,83.43,67.06,95.33,52.48,62.0,67.06,83.43,143.25,166.76,128.56,128.56,183.42,158.72,174.99,200.88,322.3,209.91,357.12,228.56,209.91,289.27,333.71,300.08,322.3,393.73,458.7,514.25,445.31,500.07,406.32,406.32,445.31,357.12,750.85,972.26,876.53,839.63,667.02,603.53,381.33,458.7,572.98,486.08,572.98,716.72,619.11,952.72,803.52,768.21,528.64,357.12,933.37,500.07,619.11,543.22,472.29,634.88,603.53,619.11,821.48,716.72,445.31,99999.0,99999.0,99999.0,99999.0,99999.0,99999.0,99999.0,99999.0,99999.0,99999.0,99999.0,99999.0,99999.0,99999.0,99999.0,99999.0,99999.0,99999.0,48.01,543.22,406.32,99999.0,99999.0,99999.0,99999.0,99999.0,99999.0,99999.0,99999.0,99999.0,99999.0,99999.0,99999.0,99999.0,99999.0,99999.0,99999.0,99999.0,99999.0
99999.0,99999.0,99999.0,99999.0,99999.0,99999.0,99999.0,99999.0,99999.0,99999.0,99999.0,99999.0,99999.0,99999.0,99999.0,99999.0,99999.0,99999.0,99999.0,99999.0,99999.0,99999.0,1.59,289.27,99999.0,166.76,619.11,48.01,99999.0,99999.0,99999.0,99999.0,99999.0,99999.0,99999.0,99999.0,99999.0,99999.0,99999.0,99999.0,99999.0,99999.0,99999.0,99999.0,268.24,258.02,57.14,1452.39,1754.75,1404.77,1266.69,1650.79,1334.84,1650.79,1222.25,1702.37,1357.95,952.72,857.98,895.28,785.76,857.98,667.02,486.08,500.07,514.25,750.85,733.68,300.08,486.08,528.64,528.64,528.64,486.08,500.07,445.31,419.12,333.71,369.12,345.32,311.09,258.02,248.0,200.88,192.05,158.72,57.14,0.89,99999.0,99999.0,99999.0,99999.0,99999.0,99999.0,99999.0,99999.0,99999.0,99999.0,99999.0,99999.0,99999.0,99999.0,99999.0,135.81,228.56,200.88,322.3,322.3,345.32,228.56,183.42,219.13,183.42,278.65,445.31,634.88,603.53,150.88,99999.0,99999.0,99999.0,99999.0,99999.0,99999.0,99999.0,99999.0,99999.0,99999.0,99999.0,99999.0,99999.0,99999.0,99999.0,99999.0,99999.0,99999.0,99999.0,99999.0,99999.0,99999.0,99999.0,99999.0,99999.0,99999.0,99999.0,99999.0,99999.0,99999.0,99999.0,99999.0,99999.0,99999.0,99999.0,99999.0,99999.0,99999.0,99999.0,99999.0,99999.0,99999.0,99999.0,99999.0,99999.0,99999.0,99999.0,99999.0,99999.0,99999.0,99999.0,99999.0,99999.0,99999.0,99999.0,121.52,228.56,135.81,357.12,128.56,99999.0,99999.0,99999.0,99999.0,99999.0,99999.0,99999.0,99999.0,99999.0,99999.0,99999.0,99999.0,12.0,99999.0,67.06,238.18,268.24,158.72,25.4,99999.0,39.68,99999.0,99999.0,99999.0,48.01,99999.0,43.75,67.06,95.33,135.81,62.0,200.88,95.33,77.77,200.88,238.18,166.76,174.99,166.76,143.25,158.72,166.76,121.52,135.81,108.03,114.68,150.88,128.56,121.52,128.56,114.68,89.28,114.68,143.25,166.76,209.91,143.25,101.58,192.05,183.42,289.27,393.73,268.24,200.88,95.33,114.68,77.77,83.43,57.14,62.0,67.06,67.06,62.0,62.0,62.0,77.77,114.68,128.56,128.56,128.56,128.56,121.52,121.52,108.03,108.03,108.03,95.33,128.56,143.25,166.76,128.56,150.88,183.42,200.88,219.13,166.76,166.76,278.65,322.3,219.13,345.32,311.09,369.12,406.32,419.12,406.32,458.7,486.08,486.08,419.12,432.12,895.28,785.76,821.48,699.96,876.53,933.37,558.0,543.22,1157.07,1311.92,876.53,1334.84,667.02,992.0,733.68,733.68,972.26,803.52,1266.69,876.53,716.72,716.72,839.63,876.53,821.48,650.85,419.12,514.25,972.26,1011.94,83.43,99999.0,99999.0,99999.0,99999.0,99999.0,99999.0,99999.0,99999.0,99999.0,99999.0,99999.0,99999.0,99999.0,99999.0,99999.0,99999.0,99999.0,143.25,121.52,419.12,933.37,192.05,101.58,99999.0,99999.0,99999.0,99999.0,99999.0,99999.0,99999.0,99999.0,99999.0,99999.0,99999.0,99999.0,99999.0,99999.0,99999.0,99999.0,99999.0
99999.0,99999.0,99999.0,99999.0,99999.0,99999.0,99999.0,99999.0,99999.0,99999.0,99999.0,99999.0,99999.0,99999.0,99999.0,99999.0,99999.0,99999.0,99999.0,99999.0,101.58,95.33,99999.0,99999.0,99999.0,99999.0,99999.0,99999.0,99999.0,99999.0,99999.0,99999.0,99999.0,99999.0,99999.0,99999.0,99999.0,99999.0,99999.0,99999.0,99999.0,99999.0,99999.0,99999.0,99999.0,99999.0,99999.0,121.52,876.53,952.72,558.0,803.52,914.23,1357.95,1289.21,667.02,1625.3,857.98,768.21,699.96,619.11,821.48,634.88,588.16,528.64,733.68,558.0,500.07,472.29,458.7,432.12,419.12,445.31,500.07,528.64,419.12,419.12,369.12,369.12,311.09,278.65,289.27,248.0,238.18,150.88,121.52,89.28,89.28,108.03,95.33,67.06,22.32,99999.0,99999.0,99999.0,99999.0,99999.0,99999.0,99999.0,99999.0,4.86,99999.0,0.0,101.58,238.18,278.65,268.24,345.32,406.32,432.12,345.32,238.18,381.33,369.12,445.31,458.7,472.29,432.12,22.32,99999.0,99999.0,99999.0,99999.0,99999.0,99999.0,99999.0,99999.0,99999.0,99999.0,99999.0,99999.0,99999.0,99999.0,99999.0,99999.0,99999.0,99999.0,99999.0,99999.0,99999.0,99999.0,99999.0,99999.0,99999.0,99999.0,99999.0,99999.0,99999.0,99999.0,99999.0,99999.0,99999.0,99999.0,99999.0,99999.0,99999.0,99999.0,99999.0,99999.0,99999.0,99999.0,99999.0,99999.0,99999.0,99999.0,99999.0,99999.0,99999.0,99999.0,99999.0,99999.0,99999.0,99999.0,99999.0,25.4,419.12,39.68,99999.0,99999.0,99999.0,99999.0,99999.0,99999.0,99999.0,99999.0,99999.0,99999.0,99999.0,32.14,35.81,32.14,99999.0,99999.0,114.68,150.88,114.68,14.28,99999.0,99999.0,99999.0,99999.0,43.75,77.77,25.4,35.81,95.33,101.58,150.88,121.52,183.42,89.28,192.05,238.18,228.56,228.56,150.88,150.88,143.25,200.88,192.05,108.03,114.68,89.28,77.77,95.33,108.03,72.32,77.77,128.56,150.88,158.72,150.88,174.99,150.88,121.52,128.56,209.91,333.71,258.02,432.12,300.08,200.88,150.88,135.81,128.56,89.28,108.03,114.68,95.33,114.68,72.32,108.03,108.03,89.28,77.77,108.03,114.68,121.52,121.52,121.52,135.81,143.25,121.52,108.03,135.81,209.91,183.42,114.68,219.13,219.13,258.02,311.09,300.08,192.05,528.64,268.24,268.24,219.13,333.71,419.12,588.16,369.12,458.7,528.64,588.16,683.39,543.22,472.29,839.63,1334.84,1289.21,1781.24,992.0,1702.37,952.72,603.53,821.48,1311.92,1916.65,1500.8,1157.07,528.64,1072.95,1452.39,952.72,992.0,857.98,750.85,839.63,1476.5,716.72,821.48,1200.32,750.85,650.85,543.22,750.85,699.96,99999.0,99999.0,99999.0,99999.0,99999.0,99999.0,99999.0,99999.0,99999.0,99999.0,99999.0,99999.0,99999.0,99999.0,99999.0,99999.0,99999.0,99999.0,77.77,357.12,750.85,952.72,12.0,83.43,8.04,99999.0,99999.0,99999.0,99999.0,99999.0,99999.0,99999.0,99999.0,99999.0,99999.0,99999.0,99999.0,99999.0,99999.0,99999.0,99999.0,99999.0
99999.0,99999.0,99999.0,99999.0,99999.0,99999.0,99999.0,99999.0,99999.0,99999.0,99999.0,99999.0,99999.0,99999.0,99999.0,99999.0,99999.0,48.01,121.52,99999.0,99999.0,99999.0,99999.0,99999.0,99999.0,99999.0,99999.0,99999.0,99999.0,99999.0,99999.0,99999.0,99999.0,99999.0,99999.0,99999.0,99999.0,99999.0,99999.0,99999.0,99999.0,99999.0,99999.0,99999.0,99999.0,99999.0,83.43,108.03,174.99,650.85,543.22,1222.25,1311.92,972.26,1072.95,1311.92,839.63,1357.95,1244.37,895.28,768.21,733.68,619.11,588.16,572.98,785.76,683.39,619.11,667.02,603.53,588.16,432.12,432.12,381.33,406.32,357.12,357.12,311.09,311.09,289.27,278.65,238.18,200.88,183.42,192.05,150.88,158.72,121.52,101.58,121.52,114.68,77.77,95.33,72.32,0.89,99999.0,99999.0,99999.0,99999.0,99999.0,99999.0,99999.0,67.06,238.18,278.65,345.32,333.71,458.7,406.32,472.29,458.7,432.12,432.12,543.22,543.22,458.7,528.64,445.31,300.08,52.48,99999.0,99999.0,99999.0,99999.0,99999.0,99999.0,99999.0,99999.0,99999.0,99999.0,99999.0,99999.0,99999.0,99999.0,99999.0,99999.0,99999.0,99999.0,99999.0,99999.0,99999.0,99999.0,99999.0,99999.0,99999.0,99999.0,99999.0,99999.0,99999.0,99999.0,99999.0,99999.0,99999.0,99999.0,99999.0,99999.0,99999.0,99999.0,99999.0,99999.0,99999.0,99999.0,99999.0,99999.0,99999.0,99999.0,99999.0,99999.0,99999.0,99999.0,99999.0,99999.0,99999.0,99999.0,99999.0,128.56,432.12,200.88,99999.0,99999.0,99999.0,99999.0,99999.0,99999.0,99999.0,99999.0,99999.0,99999.0,99999.0,39.68,3.57,43.75,99999.0,25.4,99999.0,99999.0,99999.0,99999.0,99999.0,99999.0,99999.0,16.76,114.68,101.58,77.77,150.88,143.25,128.56,135.81,135.81,150.88,192.05,228.56,209.91,219.13,258.02,183.42,158.72,114.68,128.56,135.81,128.56,95.33,128.56,128.56,128.56,135.81,158.72,57.14,108.03,43.75,114.68,143.25,166.76,143.25,95.33,228.56,432.12,311.09,419.12,322.3,200.88,166.76,128.56,150.88,114.68,121.52,128.56,128.56,121.52,121.52,121.52,108.03,121.52,108.03,101.58,101.58,101.58,114.68,128.56,135.81,150.88,143.25,166.76,248.0,192.05,248.0,406.32,543.22,458.7,500.07,300.08,381.33,558.0,393.73,406.32,406.32,528.64,406.32,381.33,514.25,458.7,500.07,634.88,588.16,634.88,839.63,619.11,1404.77,445.31,1625.3,1452.39,1728.46,1135.74,1200.32,1334.84,750.85,1135.74,1032.08,1157.07,588.16,803.52,634.88,650.85,650.85,667.02,634.88,667.02,667.02,839.63,914.23,1114.61,1381.26,803.52,785.76,857.98,99999.0,99999.0,99999.0,99999.0,99999.0,99999.0,99999.0,99999.0,99999.0,99999.0,99999.0,99999.0,99999.0,99999.0,99999.0,99999.0,99999.0,99999.0,99999.0,99999.0,238.18,716.72,1032.08,72.32,699.96,114.68,99999.0,99999.0,99999.0,99999.0,99999.0,99999.0,99999.0,99999.0,99999.0,99999.0,99999.0,99999.0,99999.0,99999.0,99999.0,99999.0,99999.0,99999.0
99999.0,99999.0,99999.0,99999.0,99999.0,99999.0,99999.0,99999.0,99999.0,99999.0,99999.0,99999.0,99999.0,99999.0,99999.0,67.06,99999.0,0.89,99999.0,99999.0,99999.0,99999.0,99999.0,99999.0,99999.0,99999.0,99999.0,99999.0,99999.0,99999.0,99999.0,99999.0,99999.0,99999.0,99999.0,99999.0,99999.0,99999.0,99999.0,99999.0,99999.0,99999.0,99999.0,99999.0,99999.0,99999.0,99999.0,99999.0,99999.0,16.76,768.21,528.64,1452.39,857.98,839.63,750.85,785.76,992.0,1222.25,1728.46,1404.77,914.23,857.98,972.26,972.26,634.88,650.85,683.39,588.16,543.22,500.07,472.29,458.7,572.98,500.07,588.16,369.12,300.08,278.65,278.65,258.02,219.13,219.13,238.18,209.91,200.88,192.05,192.05,200.88,183.42,135.81,143.25,108.03,114.68,101.58,135.81,62.0,3.57,99999.0,99999.0,2.48,101.58,158.72,219.13,258.02,369.12,406.32,432.12,445.31,528.64,558.0,543.22,572.98,472.29,486.08,486.08,486.08,406.32,381.33,311.09,311.09,174.99,99999.0,99999.0,99999.0,99999.0,99999.0,99999.0,99999.0,99999.0,99999.0,99999.0,99999.0,99999.0,99999.0,99999.0,99999.0,99999.0,99999.0,99999.0,99999.0,99999.0,99999.0,99999.0,99999.0,99999.0,99999.0,99999.0,99999.0,99999.0,99999.0,99999.0,99999.0,99999.0,99999.0,99999.0,99999.0,99999.0,99999.0,99999.0,99999.0,99999.0,99999.0,99999.0,99999.0,99999.0,99999.0,99999.0,99999.0,99999.0,99999.0,16.76,150.88,22.32,4.86,99999.0,83.43,311.09,48.01,6.35,99999.0,99999.0,99999.0,99999.0,99999.0,99999.0,99999.0,99999.0,99999.0,12.0,99999.0,99999.0,4.86,4.86,99999.0,99999.0,14.28,101.58,77.77,99999.0,67.06,43.75,158.72,89.28,143.25,192.05,143.25,219.13,183.42,209.91,209.91,219.13,200.88,228.56,238.18,209.91,166.76,238.18,166.76,166.76,95.33,143.25,101.58,158.72,192.05,174.99,192.05,219.13,43.75,143.25,101.58,209.91,268.24,278.65,192.05,192.05,95.33,419.12,768.21,486.08,322.3,228.56,174.99,166.76,89.28,158.72,150.88,143.25,101.58,121.52,121.52,114.68,108.03,101.58,108.03,95.33,95.33,108.03,108.03,128.56,166.76,192.05,219.13,238.18,268.24,289.27,228.56,219.13,1135.74,839.63,472.29,322.3,406.32,785.76,1135.74,1289.21,1222.25,914.23,992.0,572.98,500.07,486.08,603.53,716.72,803.52,733.68,952.72,895.28,785.76,543.22,514.25,1650.79,1311.92,972.26,992.0,876.53,699.96,1011.94,933.37,914.23,839.63,972.26,895.28,650.85,699.96,1093.68,558.0,322.3,357.12,345.32,445.31,785.76,486.08,322.3,135.81,445.31,248.0,99999.0,99999.0,99999.0,99999.0,99999.0,99999.0,99999.0,99999.0,99999.0,99999.0,99999.0,99999.0,99999.0,99999.0,99999.0,99999.0,99999.0,99999.0,99999.0,200.88,914.23,458.7,603.53,0.89,99999.0,99999.0,99999.0,99999.0,99999.0,99999.0,99999.0,99999.0,99999.0,99999.0,99999.0,99999.0,99999.0,99999.0,99999.0,99999.0,99999.0,99999.0,99999.0
99999.0,99999.0,99999.0,99999.0,99999.0,99999.0,99999.0,99999.0,99999.0,99999.0,99999.0,99999.0,77.77,99999.0,99999.0,99999.0,99999.0,99999.0,99999.0,99999.0,99999.0,99999.0,99999.0,99999.0,99999.0,99999.0,99999.0,99999.0,99999.0,99999.0,99999.0,99999.0,99999.0,99999.0,99999.0,99999.0,99999.0,99999.0,99999.0,99999.0,99999.0,99999.0,99999.0,99999.0,99999.0,99999.0,99999.0,278.65,99999.0,99999.0,174.99,419.12,1266.69,1625.3,933.37,1072.95,1052.41,933.37,1072.95,914.23,2414.14,1916.65,1157.07,972.26,914.23,768.21,683.39,667.02,683.39,619.11,603.53,683.39,588.16,514.25,486.08,419.12,333.71,619.11,278.65,248.0,278.65,209.91,219.13,258.02,289.27,278.65,268.24,300.08,268.24,248.0,228.56,219.13,166.76,135.81,114.68,89.28,67.06,19.44,99999.0,99999.0,99999.0,67.06,158.72,183.42,289.27,311.09,406.32,458.7,528.64,572.98,588.16,588.16,603.53,528.64,528.64,472.29,419.12,486.08,311.09,150.88,558.0,432.12,114.68,108.03,99999.0,99999.0,99999.0,99999.0,99999.0,99999.0,99999.0,99999.0,99999.0,99999.0,99999.0,99999.0,99999.0,99999.0,99999.0,99999.0,99999.0,99999.0,99999.0,99999.0,99999.0,99999.0,99999.0,99999.0,99999.0,99999.0,99999.0,99999.0,99999.0,99999.0,99999.0,99999.0,99999.0,99999.0,99999.0,99999.0,99999.0,99999.0,99999.0,99999.0,99999.0,99999.0,99999.0,99999.0,99999.0,99999.0,108.03,67.06,89.28,72.32,99999.0,6.35,99999.0,19.44,114.68,9.92,99999.0,99999.0,99999.0,99999.0,99999.0,0.0,0.0,2.48,0.0,35.81,32.14,32.14,72.32,108.03,19.44,121.52,128.56,121.52,48.01,114.68,166.76,114.68,101.58,174.99,114.68,183.42,183.42,174.99,158.72,166.76,150.88,166.76,158.72,200.88,200.88,200.88,183.42,258.02,209.91,192.05,158.72,150.88,150.88,192.05,192.05,228.56,278.65,248.0,108.03,83.43,150.88,57.14,174.99,219.13,219.13,209.91,472.29,458.7,543.22,357.12,300.08,228.56,200.88,174.99,174.99,200.88,192.05,228.56,300.08,238.18,200.88,166.76,114.68,77.77,101.58,101.58,101.58,101.58,108.03,174.99,166.76,192.05,143.25,143.25,228.56,183.42,357.12,472.29,750.85,821.48,558.0,357.12,419.12,619.11,876.53,1676.48,1702.37,2172.88,1476.5,1625.3,1093.68,543.22,528.64,543.22,857.98,952.72,857.98,472.29,445.31,634.88,1650.79,1311.92,1011.94,952.72,1011.94,952.72,683.39,972.26,634.88,650.85,543.22,486.08,393.73,333.71,357.12,369.12,311.09,311.09,289.27,393.73,432.12,699.96,486.08,768.21,1135.74,486.08,39.68,72.32,166.76,101.58,300.08,99999.0,8.04,99999.0,99999.0,99999.0,99999.0,99999.0,99999.0,99999.0,99999.0,99999.0,99999.0,99999.0,99999.0,99999.0,174.99,311.09,785.76,192.05,99999.0,99999.0,99999.0,99999.0,99999.0,99999.0,99999.0,99999.0,99999.0,99999.0,99999.0,99999.0,99999.0,99999.0,99999.0,99999.0,99999.0,99999.0,99999.0,99999.0
99999.0,99999.0,99999.0,99999.0,99999.0,99999.0,99999.0,99999.0,99999.0,99999.0,99999.0,99999.0,99999.0,99999.0,99999.0,99999.0,99999.0,99999.0,99999.0,99999.0,99999.0,99999.0,99999.0,99999.0,99999.0,99999.0,99999.0,99999.0,99999.0,99999.0,99999.0,99999.0,99999.0,99999.0,99999.0,99999.0,99999.0,99999.0,99999.0,99999.0,99999.0,99999.0,99999.0,99999.0,99999.0,99999.0,99999.0,99999.0,143.25,99999.0,99999.0,39.68,486.08,667.02,1135.74,1244.37,1135.74,821.48,839.63,1650.79,1728.46,1625.3,1972.2,1781.24,1200.32,972.26,876.53,750.85,716.72,667.02,650.85,699.96,514.25,500.07,572.98,558.0,603.53,543.22,699.96,268.24,258.02,219.13,209.91,258.02,311.09,357.12,345.32,357.12,369.12,345.32,300.08,278.65,248.0,174.99,174.99,143.25,57.14,22.32,99999.0,99999.0,99999.0,14.28,158.72,209.91,311.09,393.73,445.31,458.7,500.07,768.21,683.39,634.88,588.16,558.0,572.98,514.25,572.98,458.7,406.32,406.32,486.08,369.12,381.33,200.88,99999.0,99999.0,99999.0,99999.0,99999.0,99999.0,99999.0,99999.0,99999.0,99999.0,99999.0,99999.0,99999.0,99999.0,99999.0,99999.0,99999.0,99999.0,99999.0,99999.0,99999.0,99999.0,99999.0,99999.0,99999.0,99999.0,99999.0,99999.0,99999.0,99999.0,99999.0,99999.0,99999.0,99999.0,99999.0,99999.0,99999.0,99999.0,99999.0,99999.0,99999.0,99999.0,99999.0,99999.0,99999.0,99999.0,52.48,95.33,166.76,48.01,99999.0,99999.0,345.32,143.25,89.28,48.01,4.86,22.32,99999.0,99999.0,99999.0,0.0,6.35,32.14,39.68,43.75,57.14,83.43,28.67,35.81,32.14,62.0,83.43,108.03,89.28,101.58,83.43,101.58,121.52,166.76,150.88,135.81,143.25,143.25,128.56,143.25,128.56,135.81,158.72,135.81,192.05,228.56,228.56,158.72,200.88,108.03,128.56,150.88,166.76,158.72,200.88,238.18,258.02,101.58,72.32,108.03,77.77,174.99,158.72,166.76,248.0,166.76,219.13,619.11,345.32,381.33,300.08,258.02,200.88,200.88,101.58,219.13,248.0,311.09,357.12,381.33,393.73,300.08,209.91,150.88,101.58,95.33,108.03,128.56,135.81,128.56,248.0,258.02,209.91,219.13,166.76,183.42,357.12,634.88,733.68,1702.37,876.53,1135.74,1093.68,1200.32,1476.5,1072.95,992.0,1500.8,2085.68,2057.02,2232.0,1500.8,972.26,458.7,528.64,803.52,445.31,1093.68,1404.77,1334.84,895.28,972.26,1052.41,1011.94,1093.68,895.28,699.96,750.85,558.0,683.39,733.68,803.52,683.39,821.48,528.64,345.32,268.24,289.27,268.24,248.0,238.18,333.71,1032.08,914.23,1650.79,406.32,62.0,699.96,278.65,57.14,268.24,99999.0,67.06,99999.0,99999.0,99999.0,99999.0,99999.0,99999.0,99999.0,99999.0,99999.0,99999.0,99999.0,99999.0,99999.0,9.92,311.09,52.48,99999.0,99999.0,99999.0,99999.0,99999.0,99999.0,99999.0,99999.0,99999.0,99999.0,99999.0,99999.0,99999.0,99999.0,128.56,99999.0,99999.0,99999.0,99999.0,99999.0,99999.0
99999.0,99999.0,99999.0,99999.0,99999.0,99999.0,99999.0,99999.0,99999.0,99999.0,99999.0,99999.0,99999.0,99999.0,99999.0,99999.0,99999.0,99999.0,99999.0,99999.0,99999.0,99999.0,99999.0,99999.0,99999.0,99999.0,99999.0,99999.0,99999.0,99999.0,99999.0,99999.0,99999.0,99999.0,99999.0,99999.0,99999.0,99999.0,99999.0,99999.0,99999.0,99999.0,99999.0,99999.0,99999.0,99999.0,99999.0,99999.0,99999.0,99999.0,99999.0,99999.0,357.12,1244.37,2057.02,1093.68,1676.48,1222.25,1135.74,1289.21,839.63,933.37,1574.9,1781.24,2383.28,1200.32,914.23,821.48,750.85,768.21,699.96,667.02,572.98,572.98,528.64,619.11,650.85,472.29,588.16,381.33,248.0,258.02,219.13,219.13,311.09,381.33,406.32,406.32,406.32,369.12,369.12,300.08,278.65,192.05,150.88,121.52,72.32,83.43,52.48,2.48,8.04,43.75,209.91,278.65,322.3,333.71,445.31,458.7,543.22,699.96,528.64,406.32,634.88,716.72,667.02,895.28,528.64,406.32,472.29,445.31,238.18,89.28,4.86,99999.0,14.28,99999.0,99999.0,99999.0,99999.0,99999.0,99999.0,99999.0,99999.0,99999.0,99999.0,99999.0,99999.0,99999.0,99999.0,99999.0,99999.0,99999.0,99999.0,99999.0,99999.0,99999.0,99999.0,99999.0,99999.0,99999.0,99999.0,99999.0,99999.0,99999.0,99999.0,99999.0,99999.0,99999.0,99999.0,99999.0,99999.0,99999.0,99999.0,99999.0,99999.0,99999.0,99999.0,99999.0,99999.0,99999.0,2.48,99999.0,99999.0,99999.0,99999.0,99999.0,57.14,67.06,128.56,14.28,19.44,99999.0,99999.0,99999.0,12.0,16.76,28.67,143.25,432.12,322.3,311.09,200.88,128.56,89.28,121.52,150.88,108.03,135.81,166.76,209.91,166.76,166.76,166.76,166.76,166.76,158.72,150.88,158.72,174.99,150.88,101.58,108.03,114.68,158.72,200.88,200.88,219.13,166.76,174.99,128.56,108.03,114.68,128.56,166.76,174.99,209.91,57.14,77.77,83.43,72.32,108.03,32.14,43.75,57.14,174.99,183.42,135.81,311.09,333.71,300.08,357.12,258.02,248.0,219.13,121.52,300.08,238.18,278.65,300.08,311.09,381.33,322.3,345.32,419.12,300.08,248.0,166.76,128.56,166.76,166.76,228.56,268.24,458.7,572.98,1072.95,992.0,1889.17,1476.5,1702.37,1834.81,1476.5,821.48,895.28,1178.6,876.53,972.26,1289.21,1807.92,1650.79,1574.9,1650.79,2261.86,1916.65,1266.69,500.07,1157.07,839.63,768.21,1135.74,1114.61,992.0,1032.08,750.85,750.85,952.72,683.39,803.52,972.26,992.0,750.85,716.72,821.48,914.23,876.53,768.21,432.12,322.3,268.24,150.88,228.56,300.08,803.52,558.0,733.68,1093.68,406.32,67.06,258.02,228.56,22.32,248.0,99999.0,128.56,99999.0,99999.0,99999.0,99999.0,99999.0,99999.0,99999.0,99999.0,99999.0,99999.0,99999.0,99999.0,99999.0,99999.0,2.48,99999.0,99999.0,99999.0,99999.0,99999.0,99999.0,99999.0,99999.0,99999.0,99999.0,99999.0,99999.0,99999.0,99999.0,99999.0,99999.0,99999.0,99999.0,99999.0,99999.0,99999.0,99999.0
99999.0,99999.0,99999.0,99999.0,99999.0,99999.0,99999.0,99999.0,99999.0,99999.0,99999.0,99999.0,99999.0,99999.0,99999.0,99999.0,99999.0,99999.0,99999.0,99999.0,99999.0,99999.0,99999.0,99999.0,99999.0,99999.0,99999.0,99999.0,99999.0,99999.0,99999.0,99999.0,99999.0,99999.0,99999.0,99999.0,99999.0,99999.0,99999.0,99999.0,99999.0,99999.0,99999.0,99999.0,99999.0,99999.0,99999.0,99999.0,99999.0,99999.0,99999.0,99999.0,268.24,857.98,108.03,472.29,1916.65,1944.32,1381.26,1404.77,933.37,1114.61,1807.92,2414.14,2028.54,1476.5,1011.94,839.63,750.85,699.96,699.96,699.96,733.68,683.39,572.98,588.16,634.88,619.11,458.7,572.98,419.12,238.18,268.24,248.0,311.09,357.12,369.12,381.33,381.33,406.32,357.12,322.3,333.71,300.08,183.42,101.58,158.72,83.43,72.32,238.18,219.13,238.18,268.24,289.27,381.33,406.32,472.29,500.07,572.98,514.25,458.7,393.73,543.22,419.12,209.91,174.99,121.52,108.03,108.03,83.43,99999.0,99999.0,39.68,200.88,99999.0,99999.0,99999.0,99999.0,99999.0,99999.0,99999.0,99999.0,99999.0,99999.0,99999.0,99999.0,99999.0,99999.0,99999.0,99999.0,99999.0,99999.0,99999.0,99999.0,99999.0,99999.0,99999.0,99999.0,99999.0,99999.0,99999.0,99999.0,99999.0,99999.0,99999.0,99999.0,99999.0,99999.0,99999.0,99999.0,99999.0,99999.0,99999.0,99999.0,99999.0,99999.0,99999.0,99999.0,99999.0,99999.0,99999.0,99999.0,99999.0,99999.0,99999.0,101.58,1.59,99999.0,99999.0,99999.0,99999.0,99999.0,108.03,22.32,135.81,219.13,558.0,101.58,345.32,369.12,406.32,650.85,821.48,289.27,289.27,333.71,393.73,238.18,228.56,393.73,200.88,150.88,192.05,268.24,228.56,238.18,192.05,219.13,228.56,183.42,128.56,114.68,114.68,143.25,166.76,128.56,158.72,174.99,183.42,143.25,200.88,183.42,95.33,158.72,128.56,192.05,16.76,43.75,22.32,8.04,12.0,16.76,35.81,114.68,174.99,174.99,278.65,322.3,322.3,322.3,268.24,248.0,166.76,166.76,101.58,174.99,289.27,333.71,333.71,300.08,357.12,381.33,572.98,543.22,572.98,603.53,406.32,345.32,228.56,209.91,248.0,393.73,514.25,972.26,1625.3,1702.37,1266.69,2000.27,2000.27,2261.86,2507.88,1334.84,750.85,785.76,972.26,1676.48,2603.41,1916.65,2232.0,2291.92,1944.32,1357.95,1650.79,1093.68,1052.41,785.76,876.53,1093.68,1157.07,952.72,1222.25,1157.07,1135.74,750.85,733.68,650.85,683.39,650.85,588.16,588.16,699.96,895.28,733.68,588.16,419.12,333.71,445.31,209.91,183.42,258.02,278.65,528.64,876.53,821.48,1550.0,839.63,300.08,77.77,381.33,572.98,14.28,99999.0,300.08,345.32,99999.0,99999.0,99999.0,99999.0,99999.0,99999.0,99999.0,99999.0,99999.0,99999.0,99999.0,99999.0,99999.0,99999.0,99999.0,99999.0,99999.0,99999.0,99999.0,99999.0,99999.0,99999.0,99999.0,99999.0,99999.0,99999.0,99999.0,99999.0,99999.0,99999.0,99999.0,99999.0,99999.0,99999.0,99999.0,99999.0
99999.0,99999.0,99999.0,99999.0,99999.0,99999.0,99999.0,99999.0,99999.0,99999.0,99999.0,99999.0,99999.0,99999.0,99999.0,99999.0,99999.0,99999.0,99999.0,99999.0,99999.0,99999.0,99999.0,99999.0,99999.0,99999.0,99999.0,99999.0,99999.0,99999.0,99999.0,99999.0,99999.0,99999.0,99999.0,99999.0,99999.0,99999.0,99999.0,99999.0,99999.0,99999.0,99999.0,99999.0,99999.0,99999.0,99999.0,99999.0,99999.0,99999.0,99999.0,99999.0,99999.0,25.4,699.96,99999.0,121.52,667.02,603.53,857.98,1357.95,1052.41,1011.94,1834.81,914.23,1574.9,1052.41,972.26,895.28,1157.07,992.0,992.0,895.28,803.52,683.39,699.96,572.98,588.16,514.25,445.31,432.12,445.31,228.56,300.08,345.32,345.32,393.73,419.12,432.12,472.29,432.12,268.24,406.32,357.12,322.3,289.27,248.0,219.13,228.56,289.27,268.24,300.08,268.24,311.09,333.71,393.73,381.33,333.71,393.73,486.08,472.29,268.24,158.72,99999.0,99999.0,99999.0,114.68,108.03,99999.0,99999.0,99999.0,99999.0,543.22,150.88,43.75,9.92,99999.0,99999.0,99999.0,99999.0,99999.0,99999.0,99999.0,99999.0,99999.0,99999.0,99999.0,99999.0,99999.0,99999.0,99999.0,99999.0,99999.0,99999.0,99999.0,99999.0,99999.0,99999.0,99999.0,99999.0,99999.0,99999.0,99999.0,99999.0,99999.0,99999.0,99999.0,99999.0,99999.0,99999.0,99999.0,99999.0,99999.0,99999.0,99999.0,99999.0,99999.0,99999.0,99999.0,99999.0,99999.0,99999.0,99999.0,99999.0,99999.0,99999.0,99999.0,99999.0,19.44,99999.0,32.14,158.72,108.03,121.52,121.52,258.02,311.09,248.0,95.33,333.71,419.12,543.22,558.0,528.64,486.08,558.0,419.12,248.0,667.02,634.88,768.21,558.0,528.64,289.27,278.65,322.3,322.3,289.27,268.24,228.56,219.13,95.33,108.03,114.68,83.43,121.52,166.76,128.56,158.72,150.88,166.76,150.88,166.76,166.76,83.43,22.32,19.44,32.14,12.0,0.0,0.0,0.0,2.48,25.4,158.72,174.99,248.0,311.09,357.12,289.27,192.05,166.76,101.58,95.33,166.76,200.88,345.32,558.0,514.25,419.12,432.12,472.29,558.0,716.72,716.72,821.48,768.21,667.02,500.07,500.07,432.12,445.31,821.48,750.85,857.98,1381.26,2057.02,2383.28,2766.59,2668.09,1452.39,2733.56,1266.69,2000.27,2143.62,1600.0,1754.75,1944.32,1889.17,1889.17,1428.48,1114.61,1072.95,952.72,1404.77,933.37,1052.41,1135.74,1452.39,1702.37,1500.8,1289.21,933.37,839.63,733.68,588.16,733.68,733.68,558.0,588.16,768.21,895.28,603.53,419.12,322.3,268.24,558.0,209.91,192.05,89.28,166.76,528.64,933.37,381.33,228.56,28.67,25.4,289.27,1072.95,785.76,99999.0,99999.0,750.85,12.0,99999.0,99999.0,99999.0,99999.0,99999.0,99999.0,99999.0,99999.0,99999.0,99999.0,99999.0,99999.0,99999.0,99999.0,99999.0,99999.0,99999.0,99999.0,99999.0,99999.0,99999.0,99999.0,99999.0,99999.0,99999.0,99999.0,99999.0,99999.0,99999.0,99999.0,99999.0,99999.0,99999.0,99999.0,99999.0,99999.0
99999.0,99999.0,99999.0,99999.0,99999.0,99999.0,99999.0,99999.0,99999.0,99999.0,99999.0,99999.0,99999.0,99999.0,99999.0,99999.0,99999.0,99999.0,99999.0,99999.0,99999.0,99999.0,99999.0,99999.0,99999.0,99999.0,99999.0,99999.0,99999.0,99999.0,99999.0,99999.0,99999.0,99999.0,99999.0,99999.0,99999.0,99999.0,99999.0,99999.0,99999.0,99999.0,99999.0,99999.0,99999.0,99999.0,99999.0,99999.0,99999.0,99999.0,99999.0,99999.0,99999.0,99999.0,99999.0,99999.0,48.01,9.92,952.72,1625.3,432.12,1222.25,1381.26,699.96,1011.94,1011.94,1944.32,1178.6,992.0,914.23,952.72,699.96,733.68,803.52,803.52,603.53,667.02,716.72,514.25,445.31,458.7,458.7,248.0,322.3,357.12,357.12,345.32,345.32,393.73,486.08,300.08,174.99,174.99,174.99,486.08,369.12,333.71,311.09,289.27,322.3,289.27,300.08,322.3,393.73,406.32,458.7,558.0,345.32,183.42,322.3,183.42,121.52,228.56,500.07,289.27,67.06,99999.0,99999.0,99999.0,99999.0,99999.0,39.68,289.27,289.27,183.42,200.88,135.81,99999.0,99999.0,99999.0,99999.0,99999.0,99999.0,99999.0,99999.0,99999.0,99999.0,99999.0,99999.0,99999.0,99999.0,99999.0,99999.0,99999.0,99999.0,99999.0,99999.0,99999.0,99999.0,99999.0,99999.0,99999.0,99999.0,99999.0,99999.0,99999.0,99999.0,99999.0,99999.0,99999.0,99999.0,99999.0,99999.0,99999.0,99999.0,99999.0,99999.0,99999.0,99999.0,99999.0,99999.0,99999.0,99999.0,99999.0,99999.0,72.32,219.13,83.43,62.0,209.91,174.99,143.25,77.77,108.03,114.68,381.33,278.65,158.72,619.11,785.76,500.07,472.29,472.29,393.73,588.16,419.12,228.56,174.99,588.16,406.32,311.09,278.65,101.58,667.02,839.63,219.13,192.05,209.91,248.0,209.91,158.72,174.99,158.72,143.25,128.56,135.81,95.33,166.76,278.65,121.52,72.32,108.03,95.33,62.0,19.44,0.0,6.35,0.0,0.0,0.0,0.0,0.0,0.0,16.76,77.77,192.05,200.88,238.18,419.12,219.13,192.05,83.43,128.56,57.14,158.72,258.02,458.7,528.64,458.7,369.12,445.31,486.08,634.88,768.21,914.23,1052.41,750.85,750.85,768.21,972.26,750.85,857.98,458.7,381.33,619.11,876.53,1525.3,1754.75,2766.59,2383.28,2900.71,1266.69,1289.21,1135.74,1334.84,1728.46,2291.92,2000.27,2261.86,2172.88,1754.75,1650.79,1334.84,1452.39,972.26,1178.6,1266.69,2143.62,1702.37,1476.5,1157.07,1157.07,1052.41,803.52,785.76,667.02,634.88,603.53,716.72,803.52,895.28,1072.95,650.85,357.12,183.42,268.24,289.27,432.12,458.7,419.12,357.12,558.0,83.43,48.01,35.81,39.68,121.52,972.26,1093.68,650.85,99999.0,99999.0,200.88,99999.0,99999.0,99999.0,99999.0,99999.0,99999.0,99999.0,99999.0,99999.0,99999.0,99999.0,99999.0,99999.0,99999.0,99999.0,99999.0,99999.0,99999.0,99999.0,99999.0,99999.0,99999.0,99999.0,99999.0,99999.0,99999.0,99999.0,99999.0,99999.0,99999.0,99999.0,99999.0,99999.0,99999.0,99999.0,99999.0,99999.0
99999.0,99999.0,99999.0,99999.0,99999.0,99999.0,99999.0,99999.0,99999.0,99999.0,99999.0,99999.0,99999.0,99999.0,99999.0,99999.0,99999.0,99999.0,99999.0,99999.0,99999.0,99999.0,99999.0,99999.0,99999.0,99999.0,99999.0,99999.0,99999.0,99999.0,99999.0,99999.0,99999.0,99999.0,99999.0,99999.0,99999.0,99999.0,99999.0,99999.0,99999.0,99999.0,99999.0,99999.0,99999.0,99999.0,99999.0,99999.0,99999.0,99999.0,99999.0,99999.0,99999.0,99999.0,99999.0,99999.0,667.02,48.01,1178.6,768.21,419.12,619.11,716.72,1222.25,1311.92,1200.32,2000.27,1334.84,1052.41,1574.9,1072.95,839.63,952.72,768.21,750.85,683.39,733.68,683.39,572.98,588.16,514.25,445.31,322.3,278.65,458.7,393.73,406.32,419.12,572.98,174.99,174.99,174.99,174.99,183.42,174.99,458.7,486.08,432.12,393.73,393.73,219.13,322.3,345.32,381.33,393.73,445.31,381.33,381.33,699.96,108.03,472.29,278.65,300.08,472.29,150.88,99999.0,99999.0,99999.0,99999.0,99999.0,99999.0,99999.0,99999.0,99999.0,99999.0,48.01,77.77,99999.0,99999.0,99999.0,99999.0,99999.0,99999.0,99999.0,99999.0,99999.0,99999.0,99999.0,99999.0,99999.0,99999.0,99999.0,99999.0,99999.0,99999.0,99999.0,99999.0,99999.0,99999.0,99999.0,99999.0,99999.0,99999.0,99999.0,99999.0,99999.0,99999.0,99999.0,99999.0,99999.0,99999.0,99999.0,99999.0,99999.0,99999.0,99999.0,99999.0,99999.0,99999.0,99999.0,99999.0,99999.0,99999.0,99999.0,99999.0,99999.0,99999.0,3.57,16.76,19.44,95.33,108.03,268.24,192.05,406.32,209.91,345.32,486.08,458.7,803.52,1500.8,1500.8,1404.77,1311.92,1452.39,1072.95,268.24,135.81,166.76,158.72,83.43,95.33,183.42,406.32,952.72,1222.25,311.09,67.06,114.68,183.42,77.77,48.01,77.77,77.77,35.81,83.43,192.05,158.72,72.32,67.06,2.48,19.44,72.32,95.33,77.77,0.0,0.0,0.0,0.0,0.0,0.0,0.0,0.0,0.0,89.28,95.33,158.72,166.76,209.91,192.05,95.33,83.43,67.06,89.28,114.68,219.13,445.31,357.12,322.3,333.71,458.7,634.88,750.85,634.88,588.16,486.08,528.64,619.11,572.98,472.29,603.53,1625.3,1334.84,857.98,933.37,992.0,876.53,486.08,821.48,2261.86,2934.74,2833.26,1200.32,1244.37,1500.8,1550.0,1889.17,2635.65,2668.09,2733.56,2322.18,1676.48,1500.8,1266.69,1334.84,1428.48,1600.0,1550.0,1452.39,1334.84,1157.07,1093.68,1052.41,1072.95,839.63,683.39,650.85,683.39,716.72,914.23,1266.69,857.98,369.12,150.88,150.88,183.42,166.76,228.56,486.08,432.12,95.33,57.14,52.48,48.01,57.14,200.88,683.39,992.0,345.32,99999.0,99999.0,99999.0,248.0,99999.0,99999.0,99999.0,99999.0,99999.0,99999.0,99999.0,99999.0,99999.0,99999.0,99999.0,99999.0,99999.0,99999.0,99999.0,99999.0,99999.0,99999.0,99999.0,99999.0,99999.0,99999.0,99999.0,99999.0,99999.0,99999.0,99999.0,99999.0,99999.0,99999.0,99999.0,99999.0,99999.0,99999.0,99999.0,99999.0,99999.0
99999.0,99999.0,99999.0,99999.0,99999.0,99999.0,99999.0,99999.0,99999.0,99999.0,99999.0,99999.0,99999.0,99999.0,99999.0,99999.0,99999.0,99999.0,99999.0,99999.0,99999.0,99999.0,99999.0,99999.0,99999.0,99999.0,99999.0,99999.0,99999.0,99999.0,99999.0,99999.0,99999.0,99999.0,99999.0,99999.0,99999.0,99999.0,99999.0,99999.0,99999.0,99999.0,99999.0,99999.0,99999.0,99999.0,99999.0,99999.0,99999.0,99999.0,99999.0,99999.0,99999.0,99999.0,99999.0,99999.0,393.73,500.07,1404.77,258.02,174.99,381.33,839.63,857.98,1600.0,1889.17,1916.65,2028.54,1200.32,1625.3,1244.37,1032.08,895.28,857.98,876.53,876.53,857.98,750.85,667.02,572.98,619.11,432.12,322.3,289.27,406.32,393.73,393.73,333.71,381.33,381.33,432.12,486.08,369.12,268.24,228.56,183.42,278.65,357.12,289.27,228.56,345.32,357.12,311.09,311.09,248.0,500.07,369.12,28.67,135.81,458.7,369.12,200.88,200.88,128.56,57.14,99999.0,39.68,32.14,99999.0,101.58,99999.0,99999.0,99999.0,99999.0,99999.0,99999.0,99999.0,99999.0,99999.0,99999.0,99999.0,99999.0,99999.0,99999.0,99999.0,99999.0,99999.0,99999.0,99999.0,99999.0,99999.0,99999.0,99999.0,99999.0,99999.0,99999.0,99999.0,99999.0,99999.0,99999.0,99999.0,99999.0,99999.0,99999.0,99999.0,99999.0,99999.0,99999.0,99999.0,99999.0,99999.0,99999.0,99999.0,99999.0,99999.0,99999.0,99999.0,99999.0,99999.0,99999.0,99999.0,99999.0,99999.0,99999.0,99999.0,99999.0,99999.0,99999.0,12.0,67.06,121.52,268.24,248.0,278.65,369.12,445.31,369.12,2114.55,2172.88,2383.28,2571.37,1404.77,1525.3,1381.26,1135.74,650.85,158.72,150.88,150.88,121.52,77.77,95.33,486.08,803.52,381.33,1178.6,558.0,219.13,158.72,101.58,48.01,99999.0,16.76,25.4,19.44,99999.0,99999.0,99999.0,19.44,52.48,72.32,52.48,12.0,143.25,83.43,0.0,0.0,0.0,0.0,0.0,0.0,0.0,0.0,0.0,0.0,108.03,150.88,174.99,101.58,135.81,39.68,57.14,67.06,121.52,158.72,114.68,209.91,228.56,238.18,322.3,432.12,472.29,572.98,406.32,333.71,333.71,345.32,333.71,333.71,458.7,393.73,345.32,393.73,472.29,2057.02,619.11,634.88,588.16,716.72,857.98,1452.39,2445.19,2668.09,2445.19,2232.0,1357.95,1916.65,1944.32,2172.88,1972.2,2476.43,2700.73,2057.02,1834.81,1574.9,1476.5,1334.84,1266.69,1381.26,1381.26,1266.69,1052.41,952.72,1032.08,1032.08,821.48,803.52,933.37,839.63,1135.74,785.76,458.7,278.65,135.81,135.81,143.25,135.81,174.99,228.56,108.03,238.18,166.76,67.06,166.76,83.43,750.85,839.63,914.23,99999.0,99999.0,99999.0,99999.0,99999.0,114.68,99999.0,99999.0,99999.0,99999.0,99999.0,99999.0,99999.0,99999.0,99999.0,99999.0,99999.0,99999.0,99999.0,99999.0,99999.0,99999.0,99999.0,99999.0,99999.0,99999.0,99999.0,99999.0,99999.0,99999.0,99999.0,99999.0,99999.0,99999.0,99999.0,99999.0,99999.0,99999.0,99999.0,99999.0,99999.0,99999.0
99999.0,99999.0,99999.0,99999.0,99999.0,99999.0,99999.0,99999.0,99999.0,99999.0,99999.0,99999.0,99999.0,99999.0,99999.0,99999.0,99999.0,99999.0,99999.0,99999.0,99999.0,99999.0,99999.0,99999.0,99999.0,99999.0,99999.0,99999.0,99999.0,99999.0,99999.0,99999.0,99999.0,99999.0,99999.0,99999.0,99999.0,99999.0,99999.0,99999.0,99999.0,99999.0,99999.0,99999.0,99999.0,99999.0,99999.0,99999.0,99999.0,99999.0,99999.0,99999.0,99999.0,99999.0,99999.0,99999.0,588.16,158.72,1157.07,458.7,768.21,1200.32,1600.0,1574.9,1381.26,2172.88,1972.2,1525.3,2383.28,2668.09,1404.77,1266.69,1052.41,992.0,972.26,1032.08,933.37,821.48,716.72,543.22,572.98,393.73,543.22,333.71,369.12,345.32,289.27,345.32,393.73,432.12,528.64,406.32,200.88,166.76,174.99,228.56,166.76,166.76,166.76,166.76,333.71,472.29,369.12,121.52,77.77,62.0,12.0,228.56,381.33,699.96,345.32,83.43,101.58,183.42,192.05,89.28,57.14,183.42,52.48,99999.0,99999.0,99999.0,99999.0,99999.0,99999.0,99999.0,99999.0,99999.0,99999.0,99999.0,99999.0,99999.0,99999.0,99999.0,99999.0,99999.0,99999.0,99999.0,99999.0,99999.0,99999.0,99999.0,99999.0,99999.0,99999.0,99999.0,99999.0,99999.0,99999.0,99999.0,99999.0,99999.0,99999.0,99999.0,99999.0,99999.0,99999.0,99999.0,99999.0,99999.0,99999.0,99999.0,99999.0,99999.0,99999.0,99999.0,99999.0,99999.0,99999.0,99999.0,99999.0,99999.0,99999.0,99999.0,99999.0,99999.0,99999.0,99999.0,99999.0,48.01,174.99,381.33,650.85,992.0,667.02,588.16,1334.84,1135.74,143.25,89.28,114.68,183.42,99999.0,99999.0,1032.08,150.88,89.28,333.71,83.43,72.32,72.32,128.56,1032.08,1357.95,1200.32,1381.26,558.0,9.92,48.01,0.0,99999.0,99999.0,99999.0,83.43,32.14,99999.0,35.81,99999.0,2.48,48.01,89.28,150.88,209.91,183.42,28.67,1.59,0.0,0.0,0.0,0.0,0.0,0.0,0.0,0.0,0.0,101.58,77.77,89.28,95.33,28.67,32.14,52.48,72.32,89.28,101.58,114.68,143.25,200.88,238.18,258.02,289.27,333.71,500.07,381.33,345.32,357.12,369.12,393.73,406.32,588.16,1525.3,2232.0,821.48,1676.48,716.72,278.65,345.32,514.25,803.52,1093.68,1428.48,1093.68,1289.21,1574.9,1676.48,2000.27,2539.53,2291.92,1972.2,1781.24,1404.77,1754.75,1452.39,1381.26,1266.69,1428.48,1334.84,1072.95,1093.68,972.26,933.37,876.53,972.26,1178.6,1525.3,1200.32,895.28,821.48,876.53,914.23,895.28,345.32,150.88,128.56,121.52,121.52,174.99,357.12,219.13,543.22,381.33,183.42,72.32,89.28,209.91,432.12,683.39,99999.0,99999.0,99999.0,99999.0,99999.0,99999.0,99999.0,99999.0,99999.0,99999.0,99999.0,158.72,99999.0,99999.0,99999.0,99999.0,99999.0,99999.0,99999.0,99999.0,99999.0,99999.0,99999.0,99999.0,99999.0,99999.0,99999.0,99999.0,99999.0,99999.0,99999.0,99999.0,99999.0,99999.0,99999.0,99999.0,99999.0,99999.0,99999.0,99999.0,99999.0,99999.0,99999.0
99999.0,99999.0,99999.0,99999.0,99999.0,99999.0,99999.0,99999.0,99999.0,99999.0,99999.0,99999.0,99999.0,99999.0,99999.0,99999.0,99999.0,99999.0,99999.0,99999.0,99999.0,99999.0,99999.0,99999.0,99999.0,99999.0,99999.0,99999.0,99999.0,99999.0,99999.0,99999.0,99999.0,99999.0,99999.0,99999.0,99999.0,99999.0,99999.0,99999.0,99999.0,99999.0,99999.0,99999.0,99999.0,99999.0,99999.0,99999.0,99999.0,99999.0,99999.0,99999.0,99999.0,99999.0,99999.0,99999.0,381.33,588.16,992.0,1428.48,1032.08,1781.24,1200.32,1011.94,2085.68,2571.37,2635.65,2383.28,1944.32,2383.28,2172.88,1381.26,2635.65,1357.95,1289.21,1676.48,992.0,750.85,683.39,500.07,603.53,406.32,528.64,558.0,322.3,300.08,322.3,311.09,289.27,300.08,333.71,248.0,174.99,166.76,322.3,357.12,209.91,166.76,174.99,357.12,219.13,258.02,183.42,135.81,114.68,486.08,268.24,419.12,558.0,289.27,128.56,16.76,99999.0,99999.0,166.76,72.32,99999.0,99999.0,99999.0,99999.0,99999.0,99999.0,99999.0,99999.0,99999.0,99999.0,99999.0,99999.0,99999.0,99999.0,99999.0,99999.0,99999.0,99999.0,99999.0,99999.0,99999.0,99999.0,99999.0,99999.0,99999.0,99999.0,99999.0,99999.0,99999.0,99999.0,99999.0,99999.0,99999.0,99999.0,99999.0,99999.0,99999.0,99999.0,99999.0,99999.0,99999.0,99999.0,99999.0,99999.0,99999.0,99999.0,99999.0,99999.0,99999.0,99999.0,99999.0,99999.0,99999.0,99999.0,99999.0,99999.0,99999.0,99999.0,99999.0,99999.0,99999.0,99999.0,99999.0,57.14,83.43,219.13,543.22,1032.08,381.33,992.0,2000.27,486.08,768.21,876.53,543.22,62.0,99999.0,99999.0,99999.0,634.88,1266.69,933.37,345.32,248.0,228.56,289.27,83.43,158.72,183.42,114.68,57.14,32.14,62.0,99999.0,99999.0,99999.0,99999.0,99999.0,99999.0,99999.0,99999.0,99999.0,135.81,174.99,528.64,528.64,432.12,209.91,166.76,25.4,0.0,0.0,0.0,0.0,83.43,95.33,0.0,219.13,143.25,121.52,174.99,183.42,28.67,32.14,32.14,52.48,72.32,89.28,108.03,128.56,135.81,369.12,183.42,300.08,345.32,322.3,311.09,406.32,514.25,406.32,432.12,914.23,1266.69,2539.53,1807.92,2352.63,619.11,1381.26,500.07,432.12,419.12,432.12,514.25,603.53,768.21,1072.95,1114.61,683.39,914.23,1650.79,1381.26,1574.9,1476.5,2085.68,1676.48,1244.37,1861.89,1052.41,1200.32,1334.84,1266.69,1157.07,1157.07,857.98,857.98,1093.68,1311.92,1157.07,1114.61,1135.74,1011.94,1178.6,1357.95,839.63,514.25,192.05,158.72,143.25,219.13,183.42,174.99,369.12,876.53,278.65,650.85,183.42,67.06,128.56,486.08,345.32,99999.0,99999.0,99999.0,99999.0,99999.0,99999.0,486.08,99999.0,99999.0,99999.0,9.92,99999.0,99999.0,99999.0,99999.0,99999.0,99999.0,99999.0,99999.0,99999.0,99999.0,99999.0,99999.0,99999.0,99999.0,99999.0,99999.0,99999.0,99999.0,99999.0,99999.0,99999.0,99999.0,99999.0,99999.0,99999.0,99999.0,99999.0,99999.0,99999.0,99999.0,99999.0,99999.0,99999.0
99999.0,99999.0,99999.0,99999.0,99999.0,99999.0,99999.0,99999.0,99999.0,99999.0,99999.0,99999.0,99999.0,99999.0,99999.0,99999.0,99999.0,99999.0,99999.0,99999.0,99999.0,99999.0,99999.0,99999.0,99999.0,99999.0,99999.0,99999.0,99999.0,99999.0,99999.0,99999.0,99999.0,99999.0,99999.0,99999.0,99999.0,99999.0,99999.0,99999.0,99999.0,99999.0,99999.0,99999.0,99999.0,99999.0,99999.0,99999.0,99999.0,99999.0,99999.0,99999.0,99999.0,99999.0,99999.0,99999.0,357.12,1357.95,1476.5,1381.26,1289.21,1452.39,1200.32,857.98,1807.92,1834.81,1702.37,1550.0,1944.32,2833.26,2172.88,1676.48,2202.34,1574.9,1452.39,1200.32,1157.07,876.53,821.48,716.72,572.98,472.29,432.12,432.12,458.7,369.12,381.33,393.73,268.24,311.09,248.0,322.3,174.99,183.42,278.65,209.91,209.91,166.76,278.65,322.3,72.32,72.32,72.32,108.03,445.31,558.0,89.28,311.09,238.18,32.14,99999.0,99999.0,99999.0,99999.0,99999.0,99999.0,99999.0,99999.0,99999.0,99999.0,99999.0,99999.0,99999.0,99999.0,99999.0,99999.0,99999.0,99999.0,99999.0,99999.0,99999.0,99999.0,99999.0,99999.0,99999.0,99999.0,99999.0,99999.0,99999.0,99999.0,99999.0,99999.0,99999.0,99999.0,99999.0,99999.0,99999.0,99999.0,99999.0,99999.0,99999.0,99999.0,99999.0,99999.0,99999.0,99999.0,99999.0,99999.0,99999.0,99999.0,99999.0,99999.0,99999.0,99999.0,99999.0,99999.0,99999.0,99999.0,99999.0,99999.0,99999.0,99999.0,634.88,381.33,268.24,99999.0,28.67,99999.0,48.01,174.99,238.18,219.13,750.85,39.68,99999.0,345.32,114.68,99999.0,99999.0,99999.0,158.72,500.07,683.39,72.32,99999.0,99999.0,99999.0,750.85,1476.5,1072.95,839.63,472.29,914.23,183.42,95.33,114.68,369.12,258.02,28.67,99999.0,99999.0,99999.0,99999.0,99999.0,99999.0,99999.0,99999.0,99999.0,99999.0,99999.0,1357.95,2635.65,2733.56,768.21,634.88,238.18,16.76,0.0,0.0,0.0,0.0,0.0,158.72,101.58,108.03,238.18,158.72,62.0,48.01,52.48,57.14,57.14,89.28,143.25,158.72,174.99,166.76,166.76,369.12,699.96,432.12,432.12,588.16,572.98,914.23,683.39,716.72,821.48,1476.5,1011.94,1807.92,2507.88,933.37,972.26,3395.13,3322.12,2968.96,1889.17,1500.8,3322.12,2900.71,952.72,2700.73,2114.55,1625.3,514.25,1452.39,1052.41,1032.08,839.63,1625.3,1381.26,1525.3,1550.0,1525.3,1525.3,1334.84,952.72,914.23,1011.94,1093.68,1011.94,1032.08,1114.61,1072.95,1157.07,1311.92,1428.48,750.85,432.12,311.09,219.13,183.42,114.68,200.88,289.27,472.29,543.22,572.98,300.08,785.76,289.27,289.27,603.53,258.02,99999.0,99999.0,99999.0,99999.0,99999.0,99999.0,174.99,381.33,634.88,121.52,99999.0,99999.0,99999.0,99999.0,99999.0,99999.0,99999.0,99999.0,99999.0,99999.0,99999.0,99999.0,99999.0,99999.0,99999.0,99999.0,99999.0,99999.0,99999.0,99999.0,99999.0,99999.0,99999.0,99999.0,99999.0,99999.0,99999.0,99999.0,99999.0,99999.0,99999.0,99999.0,99999.0,99999.0,99999.0
99999.0,99999.0,99999.0,99999.0,99999.0,99999.0,99999.0,99999.0,99999.0,99999.0,99999.0,99999.0,99999.0,99999.0,99999.0,99999.0,99999.0,99999.0,99999.0,99999.0,99999.0,99999.0,99999.0,99999.0,99999.0,99999.0,99999.0,99999.0,99999.0,99999.0,99999.0,99999.0,99999.0,99999.0,99999.0,99999.0,99999.0,99999.0,99999.0,99999.0,99999.0,99999.0,99999.0,99999.0,99999.0,99999.0,99999.0,99999.0,99999.0,99999.0,99999.0,99999.0,99999.0,99999.0,99999.0,99999.0,345.32,1222.25,1404.77,1834.81,1574.9,1244.37,1550.0,1728.46,1428.48,1311.92,1525.3,1781.24,2085.68,2799.83,2143.62,2232.0,1916.65,2000.27,1916.65,1428.48,1311.92,1178.6,1052.41,895.28,733.68,588.16,543.22,322.3,406.32,345.32,345.32,278.65,300.08,228.56,278.65,278.65,174.99,174.99,289.27,289.27,258.02,166.76,166.76,166.76,174.99,543.22,472.29,278.65,486.08,486.08,311.09,228.56,67.06,99999.0,99999.0,99999.0,99999.0,99999.0,99999.0,99999.0,99999.0,99999.0,99999.0,99999.0,99999.0,99999.0,99999.0,99999.0,99999.0,99999.0,99999.0,99999.0,99999.0,99999.0,99999.0,99999.0,99999.0,99999.0,99999.0,99999.0,99999.0,99999.0,99999.0,99999.0,99999.0,99999.0,99999.0,99999.0,99999.0,99999.0,99999.0,99999.0,99999.0,99999.0,99999.0,99999.0,99999.0,99999.0,99999.0,99999.0,99999.0,99999.0,99999.0,99999.0,99999.0,99999.0,99999.0,99999.0,99999.0,99999.0,99999.0,99999.0,99999.0,99999.0,99999.0,486.08,528.64,1428.48,785.76,839.63,933.37,445.31,500.07,785.76,1600.0,1834.81,992.0,99999.0,99999.0,99999.0,99999.0,99999.0,99999.0,62.0,99999.0,72.32,322.3,1625.3,99999.0,99999.0,99999.0,99999.0,83.43,933.37,381.33,572.98,839.63,952.72,322.3,432.12,135.81,35.81,99999.0,99999.0,99999.0,99999.0,99999.0,99999.0,99999.0,99999.0,99999.0,99999.0,99999.0,99999.0,99999.0,99999.0,514.25,1728.46,1781.24,2445.19,1500.8,1244.37,0.0,0.0,0.0,0.0,0.0,62.0,143.25,101.58,43.75,101.58,62.0,72.32,135.81,83.43,114.68,393.73,300.08,238.18,183.42,192.05,200.88,432.12,1428.48,1754.75,1781.24,3581.13,3733.5,3618.92,1600.0,1600.0,2571.37,3506.13,3656.92,3733.5,3107.84,3468.93,3285.91,2700.73,1650.79,1650.79,1781.24,419.12,683.39,768.21,289.27,572.98,895.28,1357.95,1650.79,1428.48,1072.95,933.37,895.28,1011.94,1157.07,1266.69,1500.8,1311.92,914.23,1072.95,1114.61,1200.32,1093.68,1222.25,1200.32,1222.25,1266.69,1266.69,1266.69,1676.48,914.23,445.31,514.25,345.32,83.43,121.52,219.13,369.12,634.88,750.85,839.63,588.16,128.56,99999.0,99999.0,99999.0,99999.0,99999.0,99999.0,99999.0,99999.0,99999.0,99999.0,99999.0,248.0,99999.0,99999.0,99999.0,99999.0,99999.0,99999.0,99999.0,99999.0,99999.0,99999.0,99999.0,99999.0,99999.0,99999.0,99999.0,99999.0,99999.0,99999.0,99999.0,99999.0,99999.0,99999.0,99999.0,99999.0,99999.0,99999.0,99999.0,99999.0,99999.0,99999.0,99999.0,99999.0,99999.0,99999.0,99999.0,99999.0,99999.0
99999.0,99999.0,99999.0,99999.0,99999.0,99999.0,99999.0,99999.0,99999.0,99999.0,99999.0,99999.0,99999.0,99999.0,99999.0,99999.0,99999.0,99999.0,99999.0,99999.0,99999.0,99999.0,99999.0,99999.0,99999.0,99999.0,99999.0,99999.0,99999.0,99999.0,99999.0,99999.0,99999.0,99999.0,99999.0,99999.0,99999.0,99999.0,99999.0,99999.0,99999.0,99999.0,99999.0,99999.0,99999.0,99999.0,99999.0,99999.0,99999.0,99999.0,99999.0,99999.0,99999.0,99999.0,99999.0,99999.0,716.72,1178.6,1404.77,1404.77,1728.46,1428.48,1381.26,2057.02,2028.54,1834.81,1311.92,1500.8,2507.88,2028.54,2028.54,2143.62,2291.92,2866.89,2414.14,1702.37,1404.77,1052.41,1072.95,914.23,750.85,603.53,445.31,357.12,381.33,381.33,258.02,238.18,192.05,200.88,209.91,174.99,209.91,219.13,278.65,209.91,192.05,166.76,322.3,345.32,458.7,572.98,472.29,572.98,514.25,209.91,174.99,77.77,14.28,99999.0,99999.0,99999.0,99999.0,99999.0,99999.0,99999.0,99999.0,99999.0,99999.0,99999.0,99999.0,99999.0,99999.0,99999.0,99999.0,99999.0,99999.0,99999.0,99999.0,99999.0,99999.0,99999.0,99999.0,99999.0,99999.0,99999.0,99999.0,99999.0,99999.0,99999.0,99999.0,99999.0,99999.0,99999.0,99999.0,99999.0,99999.0,99999.0,99999.0,99999.0,99999.0,99999.0,99999.0,99999.0,99999.0,99999.0,99999.0,99999.0,99999.0,99999.0,99999.0,99999.0,99999.0,99999.0,99999.0,99999.0,99999.0,99999.0,99999.0,99999.0,99999.0,183.42,619.11,650.85,733.68,839.63,972.26,992.0,619.11,183.42,238.18,650.85,99999.0,99999.0,99999.0,99999.0,99999.0,99999.0,99999.0,99999.0,99999.0,99999.0,99999.0,406.32,895.28,83.43,99999.0,99999.0,99999.0,14.28,857.98,785.76,558.0,699.96,992.0,458.7,62.0,114.68,99999.0,99999.0,99999.0,99999.0,486.08,1052.41,972.26,1093.68,99999.0,99999.0,99999.0,99999.0,99999.0,650.85,2383.28,1861.89,588.16,572.98,200.88,2668.09,472.29,0.0,0.0,0.0,0.0,0.0,311.09,248.0,200.88,32.14,57.14,89.28,95.33,114.68,150.88,278.65,445.31,238.18,248.0,289.27,333.71,572.98,3395.13,1311.92,2539.53,2733.56,1781.24,1972.2,3107.84,3889.04,4087.94,1334.84,1334.84,1178.6,992.0,952.72,914.23,895.28,952.72,1807.92,1702.37,1452.39,1244.37,1032.08,1052.41,1157.07,1476.5,1944.32,2172.88,1807.92,1222.25,1178.6,1011.94,952.72,914.23,895.28,733.68,952.72,1600.0,1381.26,1200.32,1625.3,1550.0,1525.3,1781.24,1357.95,1357.95,1525.3,1072.95,803.52,952.72,650.85,333.71,200.88,8.04,108.03,406.32,406.32,528.64,750.85,1525.3,258.02,99999.0,99999.0,99999.0,99999.0,99999.0,99999.0,99999.0,99999.0,99999.0,99999.0,99999.0,99999.0,99999.0,99999.0,99999.0,99999.0,99999.0,99999.0,99999.0,99999.0,99999.0,99999.0,99999.0,99999.0,99999.0,99999.0,99999.0,99999.0,99999.0,99999.0,99999.0,99999.0,99999.0,99999.0,99999.0,99999.0,99999.0,99999.0,99999.0,99999.0,99999.0,99999.0,99999.0,99999.0,99999.0,99999.0,99999.0,99999.0,99999.0,99999.0
99999.0,99999.0,99999.0,99999.0,99999.0,99999.0,99999.0,99999.0,99999.0,99999.0,99999.0,99999.0,99999.0,99999.0,99999.0,99999.0,99999.0,99999.0,99999.0,99999.0,99999.0,99999.0,99999.0,99999.0,99999.0,99999.0,99999.0,99999.0,99999.0,99999.0,99999.0,99999.0,99999.0,99999.0,99999.0,99999.0,99999.0,99999.0,99999.0,99999.0,99999.0,99999.0,99999.0,99999.0,99999.0,99999.0,99999.0,99999.0,99999.0,99999.0,99999.0,99999.0,99999.0,99999.0,99999.0,99999.0,972.26,228.56,2085.68,1334.84,1334.84,1574.9,1889.17,1525.3,2476.43,1728.46,1289.21,1702.37,1834.81,2261.86,1574.9,1807.92,2202.34,2668.09,2476.43,1428.48,1289.21,1178.6,952.72,821.48,733.68,572.98,486.08,393.73,311.09,311.09,300.08,268.24,183.42,192.05,183.42,238.18,219.13,238.18,268.24,278.65,311.09,333.71,300.08,345.32,345.32,458.7,311.09,150.88,166.76,32.14,99999.0,99999.0,99999.0,99999.0,99999.0,99999.0,99999.0,99999.0,99999.0,99999.0,99999.0,99999.0,99999.0,99999.0,99999.0,99999.0,99999.0,99999.0,99999.0,99999.0,99999.0,99999.0,99999.0,99999.0,99999.0,99999.0,99999.0,99999.0,99999.0,99999.0,99999.0,99999.0,99999.0,99999.0,99999.0,99999.0,99999.0,99999.0,99999.0,99999.0,99999.0,99999.0,99999.0,99999.0,99999.0,99999.0,99999.0,99999.0,99999.0,99999.0,99999.0,99999.0,99999.0,99999.0,99999.0,99999.0,99999.0,99999.0,99999.0,99999.0,99999.0,99999.0,99999.0,99999.0,99999.0,67.06,952.72,839.63,1052.41,785.76,588.16,768.21,1311.92,1574.9,99999.0,99999.0,99999.0,99999.0,99999.0,99999.0,99999.0,99999.0,289.27,300.08,99999.0,99999.0,99999.0,99999.0,99999.0,572.98,108.03,101.58,99999.0,228.56,1093.68,1200.32,135.81,699.96,99999.0,99999.0,150.88,99999.0,99999.0,83.43,699.96,1011.94,1500.8,1032.08,1052.41,699.96,1452.39,1676.48,1889.17,1550.0,1861.89,1889.17,2322.18,1600.0,1834.81,2414.14,1178.6,2.48,48.01,143.25,0.0,0.0,0.0,114.68,166.76,200.88,114.68,72.32,121.52,135.81,143.25,158.72,166.76,183.42,228.56,588.16,1334.84,345.32,268.24,650.85,381.33,432.12,1011.94,2445.19,3733.5,3468.93,3968.01,2114.55,1754.75,1072.95,1032.08,1011.94,992.0,952.72,933.37,914.23,895.28,857.98,821.48,803.52,785.76,1072.95,839.63,1011.94,1052.41,1135.74,1404.77,1266.69,1428.48,1244.37,1178.6,1135.74,1266.69,1404.77,1381.26,1550.0,1032.08,1093.68,1157.07,1032.08,992.0,1032.08,1334.84,1728.46,1157.07,650.85,419.12,667.02,419.12,528.64,14.28,99999.0,83.43,158.72,258.02,619.11,952.72,1476.5,543.22,99999.0,99999.0,99999.0,99999.0,99999.0,99999.0,99999.0,99999.0,99999.0,99999.0,99999.0,458.7,150.88,99999.0,99999.0,99999.0,99999.0,99999.0,99999.0,99999.0,99999.0,99999.0,99999.0,99999.0,99999.0,99999.0,99999.0,99999.0,99999.0,99999.0,99999.0,99999.0,99999.0,99999.0,99999.0,99999.0,99999.0,99999.0,99999.0,99999.0,99999.0,99999.0,99999.0,99999.0,99999.0,99999.0,99999.0,99999.0,99999.0,99999.0,99999.0
99999.0,99999.0,99999.0,99999.0,99999.0,99999.0,99999.0,99999.0,99999.0,99999.0,99999.0,99999.0,99999.0,99999.0,99999.0,99999.0,99999.0,99999.0,99999.0,99999.0,99999.0,99999.0,99999.0,99999.0,99999.0,99999.0,99999.0,99999.0,99999.0,99999.0,99999.0,99999.0,99999.0,99999.0,99999.0,99999.0,99999.0,99999.0,99999.0,99999.0,99999.0,99999.0,99999.0,99999.0,99999.0,99999.0,99999.0,99999.0,99999.0,99999.0,99999.0,99999.0,99999.0,99999.0,99999.0,99999.0,369.12,369.12,183.42,2202.34,1861.89,1452.39,1916.65,2202.34,2143.62,1728.46,1357.95,1452.39,2143.62,1650.79,2261.86,2172.88,2571.37,3431.93,2603.41,1916.65,1625.3,1266.69,1052.41,857.98,603.53,458.7,432.12,419.12,311.09,278.65,228.56,248.0,209.91,174.99,183.42,219.13,150.88,200.88,289.27,200.88,300.08,289.27,228.56,381.33,768.21,345.32,166.76,89.28,99999.0,4.86,99999.0,99999.0,99999.0,99999.0,99999.0,99999.0,99999.0,99999.0,99999.0,99999.0,99999.0,99999.0,99999.0,99999.0,99999.0,99999.0,99999.0,99999.0,99999.0,99999.0,99999.0,99999.0,99999.0,99999.0,99999.0,99999.0,99999.0,99999.0,99999.0,99999.0,99999.0,99999.0,99999.0,99999.0,99999.0,99999.0,99999.0,99999.0,99999.0,99999.0,99999.0,99999.0,99999.0,99999.0,99999.0,99999.0,99999.0,99999.0,99999.0,99999.0,99999.0,99999.0,99999.0,99999.0,99999.0,99999.0,99999.0,99999.0,99999.0,99999.0,99999.0,99999.0,99999.0,99999.0,99999.0,28.67,432.12,369.12,803.52,839.63,683.39,733.68,603.53,48.01,99999.0,99999.0,99999.0,99999.0,99999.0,99999.0,99999.0,99999.0,419.12,209.91,99999.0,99999.0,99999.0,99999.0,99999.0,99999.0,1200.32,99999.0,99999.0,99999.0,432.12,768.21,333.71,99999.0,99999.0,99999.0,99999.0,458.7,1135.74,1135.74,1178.6,1072.95,1222.25,1114.61,1135.74,1266.69,1428.48,1889.17,1244.37,2539.53,1676.48,2232.0,1625.3,2291.92,1525.3,1404.77,876.53,238.18,4.86,0.0,0.0,0.0,0.0,0.0,0.0,22.32,43.75,62.0,83.43,101.58,135.81,183.42,174.99,183.42,228.56,289.27,1093.68,1222.25,2000.27,2635.65,3810.87,3810.87,3581.13,5293.42,3810.87,1550.0,1222.25,1157.07,1114.61,1114.61,1114.61,1093.68,1072.95,1052.41,1032.08,1011.94,972.26,876.53,803.52,876.53,1600.0,1781.24,1916.65,3249.9,3285.91,3395.13,4888.98,4374.73,2261.86,1381.26,1574.9,1550.0,1334.84,1289.21,1289.21,1093.68,1452.39,1381.26,1404.77,1381.26,1311.92,1178.6,1266.69,1834.81,1311.92,114.68,19.44,2.48,8.04,99999.0,99999.0,14.28,0.4,99999.0,99999.0,16.76,445.31,9.92,99999.0,99999.0,99999.0,99999.0,99999.0,99999.0,99999.0,99999.0,99999.0,99999.0,99999.0,99999.0,43.75,572.98,99999.0,99999.0,99999.0,99999.0,99999.0,99999.0,99999.0,99999.0,99999.0,99999.0,99999.0,99999.0,99999.0,99999.0,99999.0,99999.0,99999.0,99999.0,99999.0,99999.0,99999.0,99999.0,99999.0,99999.0,99999.0,99999.0,99999.0,99999.0,99999.0,99999.0,99999.0,99999.0,99999.0,99999.0,99999.0,99999.0,99999.0,99999.0
99999.0,99999.0,99999.0,99999.0,99999.0,99999.0,99999.0,99999.0,99999.0,99999.0,99999.0,99999.0,99999.0,99999.0,99999.0,99999.0,99999.0,99999.0,99999.0,99999.0,99999.0,99999.0,99999.0,99999.0,99999.0,99999.0,99999.0,99999.0,99999.0,99999.0,99999.0,99999.0,99999.0,99999.0,99999.0,99999.0,99999.0,99999.0,99999.0,99999.0,99999.0,99999.0,99999.0,99999.0,99999.0,99999.0,99999.0,99999.0,99999.0,99999.0,99999.0,99999.0,99999.0,99999.0,99999.0,99999.0,99999.0,333.71,3.57,1052.41,2383.28,1861.89,1574.9,2202.34,2085.68,1889.17,1650.79,2799.83,2968.96,1600.0,1676.48,2668.09,2539.53,2766.59,2202.34,1525.3,1357.95,1178.6,1032.08,839.63,650.85,528.64,472.29,393.73,333.71,268.24,258.02,238.18,258.02,209.91,135.81,135.81,135.81,209.91,209.91,258.02,333.71,200.88,268.24,768.21,914.23,699.96,72.32,16.76,19.44,99999.0,99999.0,99999.0,99999.0,99999.0,99999.0,99999.0,99999.0,99999.0,99999.0,99999.0,99999.0,99999.0,99999.0,99999.0,99999.0,99999.0,99999.0,99999.0,99999.0,99999.0,99999.0,99999.0,99999.0,99999.0,99999.0,99999.0,99999.0,99999.0,99999.0,99999.0,99999.0,99999.0,99999.0,99999.0,99999.0,99999.0,99999.0,99999.0,99999.0,99999.0,99999.0,99999.0,99999.0,99999.0,99999.0,99999.0,99999.0,99999.0,99999.0,99999.0,99999.0,99999.0,99999.0,99999.0,99999.0,99999.0,99999.0,99999.0,99999.0,99999.0,99999.0,99999.0,99999.0,99999.0,99999.0,48.01,192.05,500.07,572.98,634.88,821.48,1222.25,558.0,121.52,99999.0,99999.0,99999.0,99999.0,99999.0,99999.0,99999.0,99999.0,99999.0,99999.0,99999.0,99999.0,99999.0,99999.0,99999.0,99999.0,101.58,99999.0,99999.0,99999.0,99999.0,393.73,650.85,248.0,99999.0,99999.0,135.81,143.25,289.27,821.48,1311.92,972.26,1052.41,914.23,1428.48,1550.0,1807.92,1404.77,768.21,1404.77,1011.94,1574.9,2000.27,2383.28,2202.34,1266.69,2202.34,1032.08,1525.3,0.0,0.0,0.0,0.0,0.0,6.35,311.09,572.98,114.68,83.43,114.68,135.81,166.76,174.99,200.88,228.56,369.12,1032.08,2603.41,992.0,1381.26,3581.13,2799.83,4291.8,5111.69,3968.01,4458.45,1834.81,1200.32,1222.25,1222.25,1200.32,1178.6,1178.6,1178.6,1200.32,1157.07,1114.61,1428.48,3178.47,3695.11,3543.53,2733.56,2700.73,2733.56,3431.93,4250.63,4714.39,4128.32,3889.04,3543.53,2668.09,2635.65,1500.8,1404.77,1334.84,1289.21,1157.07,1334.84,1311.92,1200.32,1072.95,1728.46,1011.94,634.88,101.58,19.44,8.04,1.59,99999.0,99999.0,99999.0,99999.0,99999.0,99999.0,99999.0,4.86,89.28,432.12,99999.0,99999.0,99999.0,99999.0,99999.0,99999.0,99999.0,99999.0,99999.0,99999.0,99999.0,183.42,733.68,9.92,99999.0,99999.0,99999.0,99999.0,99999.0,99999.0,99999.0,99999.0,99999.0,99999.0,99999.0,99999.0,99999.0,99999.0,99999.0,99999.0,99999.0,99999.0,99999.0,99999.0,99999.0,99999.0,99999.0,99999.0,99999.0,99999.0,99999.0,99999.0,99999.0,99999.0,99999.0,99999.0,99999.0,99999.0,99999.0,99999.0,99999.0,99999.0
99999.0,99999.0,99999.0,99999.0,99999.0,99999.0,99999.0,99999.0,99999.0,99999.0,99999.0,99999.0,99999.0,99999.0,99999.0,99999.0,99999.0,99999.0,99999.0,99999.0,99999.0,99999.0,99999.0,99999.0,99999.0,99999.0,99999.0,99999.0,99999.0,99999.0,99999.0,99999.0,99999.0,99999.0,99999.0,99999.0,99999.0,99999.0,99999.0,99999.0,99999.0,99999.0,99999.0,99999.0,99999.0,99999.0,99999.0,99999.0,99999.0,99999.0,99999.0,99999.0,99999.0,99999.0,99999.0,99999.0,99999.0,99999.0,803.52,95.33,2114.55,1404.77,1834.81,1574.9,1428.48,1807.92,2322.18,2261.86,1889.17,1550.0,1525.3,2172.88,2866.89,3358.52,2414.14,1807.92,1600.0,1266.69,952.72,839.63,683.39,543.22,393.73,419.12,300.08,289.27,322.3,369.12,345.32,238.18,135.81,143.25,128.56,174.99,258.02,311.09,322.3,333.71,650.85,876.53,322.3,135.81,43.75,14.28,99999.0,99999.0,99999.0,99999.0,99999.0,99999.0,99999.0,99999.0,99999.0,99999.0,99999.0,99999.0,99999.0,99999.0,99999.0,99999.0,99999.0,99999.0,99999.0,99999.0,99999.0,99999.0,99999.0,99999.0,99999.0,99999.0,99999.0,99999.0,99999.0,99999.0,99999.0,99999.0,99999.0,99999.0,99999.0,99999.0,99999.0,99999.0,99999.0,99999.0,99999.0,99999.0,99999.0,99999.0,99999.0,99999.0,99999.0,99999.0,99999.0,99999.0,99999.0,99999.0,99999.0,99999.0,99999.0,99999.0,99999.0,99999.0,99999.0,99999.0,99999.0,99999.0,99999.0,99999.0,99999.0,99999.0,99999.0,143.25,108.03,121.52,89.28,500.07,952.72,1178.6,14.28,99999.0,99999.0,99999.0,99999.0,99999.0,99999.0,99999.0,99999.0,99999.0,99999.0,99999.0,99999.0,99999.0,99999.0,369.12,289.27,99999.0,99999.0,99999.0,99999.0,99999.0,99999.0,99999.0,716.72,35.81,99999.0,99999.0,99999.0,322.3,733.68,1222.25,876.53,1452.39,1093.68,1032.08,2143.62,333.71,1072.95,634.88,558.0,750.85,1093.68,914.23,1244.37,1781.24,2172.88,1266.69,1972.2,1500.8,2414.14,0.0,0.0,0.0,0.0,0.0,0.0,311.09,1781.24,1334.84,1916.65,248.0,183.42,200.88,268.24,278.65,258.02,248.0,357.12,419.12,345.32,445.31,2733.56,3107.84,4374.73,4128.32,4628.28,4888.98,3249.9,1889.17,1404.77,1289.21,1266.69,1334.84,1357.95,1381.26,1754.75,2445.19,4458.45,4888.98,4888.98,3889.04,4542.97,4291.8,2866.89,2700.73,2766.59,3285.91,3322.12,3810.87,3810.87,3733.5,3772.09,3038.01,2833.26,1972.2,1728.46,1244.37,1357.95,1625.3,1600.0,1244.37,1011.94,1625.3,785.76,1428.48,89.28,22.32,19.44,9.92,2.48,99999.0,192.05,9.92,99999.0,99999.0,99999.0,99999.0,99999.0,108.03,857.98,99999.0,99999.0,99999.0,99999.0,99999.0,99999.0,99999.0,99999.0,99999.0,99999.0,543.22,406.32,99999.0,99999.0,99999.0,99999.0,99999.0,99999.0,99999.0,99999.0,99999.0,99999.0,99999.0,99999.0,99999.0,99999.0,99999.0,99999.0,99999.0,99999.0,99999.0,99999.0,99999.0,99999.0,99999.0,99999.0,99999.0,99999.0,99999.0,99999.0,99999.0,99999.0,99999.0,99999.0,99999.0,99999.0,99999.0,99999.0,99999.0,99999.0,99999.0
